ply
format ascii 1.0
element vertex 946
property double x
property double y
property double x_origin
property double y_origin
property int lab
end_header
7805.201767 8373.078409 7942.156886 8907.058584 1 
7777.901803 8340.889178 7942.176385 8907.011228 2 
7736.222277 8271.970545 7941.780916 8906.868367 0 
7887.988674 8756.881694 7942.160234 8906.904168 2 
7892.9522 8782.829998 7942.067671 8906.825935 0 
7884.793098 8785.82897 7942.144639 8906.890677 0 
7880.935517 8786.913462 7942.130374 8906.898353 0 
7876.92501 8788.925105 7941.780854 8906.876777 0 
7871.753514 8791.18774 7942.185361 8906.905317 0 
7868.826917 8793.111746 7942.166545 8906.799194 2 
7848.832292 8770.197461 7941.917562 8907.070966 0 
7843.829155 8771.827796 7942.225133 8907.031356 2 
7737.907794 8644.042804 7942.107291 8906.950892 0 
7634.121774 8534.00193 7942.091568 8906.807291 0 
7726.165392 8661.971942 7941.955644 8906.840402 0 
7716.147047 8666.986498 7941.967179 8907.150561 0 
7682.924237 8648.902541 7941.805878 8907.001155 2 
7672.764287 8655.222423 7942.050349 8906.846578 2 
7706.169884 8699.217911 7942.167544 8907.24904 1 
7716.795706 8722.142677 7942.030395 8906.9535 1 
7704.935482 8723.887686 7942.154392 8906.807256 1 
7697.139616 8729.99596 7941.864547 8907.055008 1 
7173.217903 8383.070191 7942.14541 8907.114949 0 
6820.806689 8194.862589 7942.01551 8906.980926 0 
7856.01513 8857.071388 7942.232081 8907.029417 2 
7857.043811 8861.03243 7942.125995 8906.963695 0 
7859.000341 8866.043539 7941.962735 8907.046047 0 
7860.936216 8870.24313 7942.249547 8907.121698 0 
7862.880816 8874.153939 7942.178954 8906.770432 0 
7865.8999 8877.793501 7942.07544 8906.867802 2 
7863.113692 8878.97085 7942.232752 8907.170381 0 
7859.083439 8880.998262 7941.901306 8906.848569 0 
7855.81965 8881.883387 7942.127986 8907.113461 0 
7852.165817 8884.003981 7941.827156 8906.916157 2 
7790.797519 8874.039891 7942.212204 8906.983736 0 
7793.033021 8879.211752 7941.855433 8907.163838 0 
7797.115691 8883.784387 7942.18427 8906.765591 2 
7788.827888 8888.009711 7941.883393 8907.19158 0 
7779.230561 8891.866145 7942.111961 8907.064001 0 
7769.114407 8895.763267 7942.16257 8907.184056 0 
7756.896655 8901.040555 7942.047517 8906.812471 0 
7705.794536 7830.124673 7793.978629 7828.842055 0 
7706.914564 7831.940833 7794.075791 7829.197586 0 
7708.902585 7835.181224 7794.111423 7828.768276 0 
7710.215612 7837.045694 7793.783867 7828.7935 0 
7711.805405 7839.91726 7794.235081 7828.785966 0 
7713.033405 7842.097042 7794.099966 7828.897812 0 
7714.110309 7845.012536 7793.831868 7828.756964 0 
7714.803091 7847.129385 7793.819435 7828.847627 0 
7716.004058 7849.048064 7793.939683 7829.168622 0 
7718.238897 7850.765474 7794.116207 7828.891483 0 
7719.196698 7853.977631 7793.909759 7829.16231 0 
7719.773324 7855.943626 7794.20581 7828.828729 0 
7721.110886 7858.190891 7793.864695 7828.894291 0 
7724.037933 7859.214661 7794.042103 7828.898242 2 
7718.977197 7864.12397 7793.905206 7829.030288 0 
7675.003355 7889.974641 7794.127915 7828.757412 0 
7676.772705 7892.817598 7794.176034 7828.761602 0 
7678.833072 7897.042241 7793.903085 7828.77977 0 
7679.769872 7901.062844 7794.19208 7828.793196 0 
7681.75647 7905.14789 7793.871925 7829.117356 2 
7619.088781 7955.98662 7793.761647 7828.876714 0 
7621.95128 7963.053749 7794.024955 7829.178477 0 
7624.92772 7969.180161 7793.958765 7829.181075 0 
7627.904802 7974.836681 7794.188487 7828.927506 0 
7631.904279 7981.114521 7793.939109 7828.987351 2 
7625.906762 7997.092194 7794.017121 7828.926634 0 
7723.905038 7903.959201 7793.96983 7828.911507 2 
7730.857091 7901.091755 7793.778863 7829.195872 0 
7736.828374 7897.79051 7793.822586 7829.029655 0 
7744.094259 7894.097541 7793.958132 7828.771979 0 
7748.027702 7893.166897 7794.203054 7829.182504 2 
7747.753578 7896.141541 7793.860011 7828.907856 0 
7750.006061 7899.049119 7794.145207 7829.162823 0 
7750.891313 7900.912328 7793.839457 7829.046351 0 
7752.121529 7904.059287 7794.207858 7829.22862 0 
7753.901041 7906.236721 7794.174493 7828.979416 0 
7755.777231 7910.247079 7793.75907 7829.12149 0 
7757.09462 7912.967202 7794.14347 7828.872323 0 
7759.884099 7916.096523 7793.804827 7828.887677 2 
7761.988064 7915.914837 7794.045533 7829.244125 2 
7764.213957 7920.94074 7794.156948 7828.85527 0 
7766.103068 7924.246405 7794.15162 7828.974597 0 
7768.055692 7928.109478 7793.953218 7829.206733 0 
7763.096199 7968.877711 7793.936149 7829.12343 0 
7766.87479 7966.945219 7793.994921 7829.21941 0 
7772.162421 7963.88839 7793.841733 7828.79652 0 
7777.234914 7959.89656 7793.934197 7828.972977 2 
7781.061397 7966.22973 7793.967102 7829.025354 0 
7784.92047 7969.874051 7794.130624 7828.773539 2 
7788.870456 7971.032244 7793.998136 7829.176148 0 
7793.891722 7973.201354 7794.132881 7829.237922 0 
7797.829065 7980.81903 7794.111352 7828.953855 0 
7803.014249 7974.856273 7793.923265 7828.92667 1 
7805.994664 7958.014998 7793.973191 7828.979577 1 
7821.161557 8045.157388 7794.202554 7828.972955 0 
7816.137118 7972.919657 7794.248309 7828.807588 1 
7817.043707 7954.128932 7793.831127 7829.164164 1 
7819.911176 7947.079263 7794.090312 7829.052899 1 
7830.030617 7970.973193 7794.040821 7829.109682 1 
7831.042223 7958.902173 7793.813536 7828.806472 1 
7840.008446 7970.986801 7793.983143 7828.75311 1 
7954.751798 8278.206334 7793.982687 7829.163356 2 
7838.113721 7940.935242 7793.88631 7829.000839 1 
7852.104899 7962.884619 7794.058427 7828.898606 1 
8268.763551 8840.139554 7793.81277 7828.924727 1 
8231.968817 8625.153081 7794.227626 7829.249433 0 
7895.876274 8002.018447 7794.109115 7829.168497 2 
7901.17062 7998.172651 7794.224969 7828.929066 2 
7899.909452 7984.958112 7793.932176 7828.911251 0 
7904.914446 7983.164864 7793.824607 7828.778167 0 
7909.850105 7979.960917 7794.029006 7829.205004 0 
7916.095536 7977.837433 7793.85361 7829.109087 0 
7921.226987 7974.916379 7793.783815 7828.945803 0 
7877.819461 7918.761441 7793.945237 7828.945734 2 
7875.029888 7909.804352 7793.864231 7828.950508 0 
7872.227003 7902.839201 7794.129574 7828.886456 2 
7876.047313 7901.811751 7794.047707 7829.211758 0 
7879.226614 7901.122313 7794.239925 7828.82672 0 
7882.83323 7899.018931 7793.781724 7829.178766 0 
7860.106364 7876.885334 7794.037853 7829.08335 0 
7858.051713 7873.071668 7793.779154 7829.121174 0 
7855.083109 7867.97439 7793.816908 7828.862996 0 
7853.028742 7863.93114 7794.063504 7829.005746 0 
7852.020341 7860.943078 7794.142201 7828.817653 0 
7850.004829 7857.939908 7793.779412 7828.981443 2 
7850.812221 7855.769337 7794.058163 7828.895452 0 
7851.038268 7854.089887 7793.824218 7828.894632 0 
7849.225221 7851.112071 7794.227982 7829.026934 0 
7847.933739 7848.757136 7793.898108 7828.766848 0 
7846.981526 7846.965017 7793.879844 7828.760268 0 
7845.146156 7844.193348 7794.016014 7828.916497 0 
7843.886427 7841.908215 7793.984151 7829.141256 0 
7843.098123 7840.013562 7793.872699 7829.160344 0 
7843.0329 7839.180862 7793.805796 7828.821168 0 
7841.02075 7836.880013 7793.9658 7828.995971 2 
7841.242085 7834.943782 7793.772905 7828.925824 2 
7843.950918 7833.921013 7793.942671 7829.182444 0 
7846.13603 7833.072515 7794.192712 7829.032186 0 
7850.015864 7830.958726 7794.198684 7829.15229 0 
7854.116941 7828.932834 7794.043546 7828.965064 0 
7856.196397 7828.166245 7793.875408 7828.979296 0 
7861.097107 7824.931204 7794.050464 7828.867857 0 
7865.061217 7822.766263 7794.113828 7829.053302 0 
7876.960045 7819.136733 7794.229125 7829.160963 0 
7875.807746 7816.921797 7794.093407 7829.193776 0 
7836.244312 7821.036119 7793.975962 7829.010175 2 
7836.244845 7819.924646 7793.912466 7829.111786 2 
7835.10748 7819.206011 7793.826849 7829.053877 0 
7835.122256 7817.952257 7793.783173 7828.969364 0 
7834.133461 7817.083637 7794.087221 7828.944678 0 
7834.0999 7814.951049 7794.24798 7828.809946 0 
7832.837782 7814.227105 7794.220909 7828.895528 0 
7832.898902 7813.064315 7793.839304 7828.893214 0 
7831.850434 7812.065266 7794.153389 7828.845279 0 
7831.239912 7809.815855 7794.207065 7829.097392 0 
7830.771866 7808.783914 7793.901269 7829.144123 0 
7829.986172 7807.934442 7793.863486 7828.869633 0 
7829.768079 7807.200707 7794.064311 7829.117979 0 
7826.901756 7806.062291 7794.177924 7828.989538 2 
7825.039396 7806.148833 7794.135066 7829.188298 0 
7818.963148 7809.22437 7793.831512 7829.063583 2 
7818.039636 7809.234901 7794.158862 7829.029548 2 
7816.800756 7809.115926 7793.876941 7828.822622 2 
7817.149841 7808.02821 7794.216745 7828.886012 2 
7816.212652 7806.830231 7794.005645 7829.23073 0 
7815.780939 7805.819956 7794.098709 7828.932695 0 
7815.132247 7805.026634 7794.172233 7828.921643 0 
7814.925467 7804.057299 7793.859941 7829.138615 0 
7814.031669 7802.941453 7793.952197 7828.821305 0 
7813.926354 7801.861059 7794.100853 7828.97711 0 
7813.226985 7801.227794 7794.049732 7829.126826 0 
7813.006004 7800.016477 7793.762838 7828.968655 0 
7812.096708 7799.018483 7793.949386 7829.127647 0 
7811.088439 7796.798095 7793.810342 7828.970686 0 
7811.074728 7796.232575 7794.142329 7828.750195 2 
7812.039873 7789.75227 7794.13881 7828.821542 0 
7810.943723 7787.841007 7793.892847 7829.120077 0 
7810.952066 7787.2437 7793.847187 7828.929052 0 
7810.221494 7785.146919 7793.805878 7828.977497 0 
7808.913396 7782.818716 7794.196153 7828.760104 0 
7808.087199 7780.895538 7794.137751 7828.925638 0 
7806.943633 7779.198093 7794.146324 7828.768362 0 
7820.180667 7712.038652 7793.768557 7828.970541 0 
7814.040922 7723.157366 7794.042083 7829.234645 2 
7810.248374 7723.184929 7794.104722 7828.95044 0 
7807.178629 7724.201909 7794.129492 7829.150122 0 
7803.098828 7725.18537 7793.87762 7828.762224 0 
7799.754086 7724.823772 7793.772328 7829.091285 0 
7796.96931 7726.160079 7793.766923 7829.162944 0 
7794.108172 7725.163246 7794.181305 7829.038839 2 
7789.951899 7720.199862 7793.759379 7829.242821 2 
7787.107228 7725.051462 7794.227466 7829.105602 2 
7783.986391 7726.082188 7793.806042 7828.91502 0 
7781.034096 7728.185534 7793.815143 7828.882924 0 
7778.120904 7729.942762 7793.895148 7829.12499 2 
7775.016534 7729.917477 7793.966274 7829.235845 0 
7767.827556 7713.983197 7794.148788 7829.185727 0 
7754.896443 7679.080093 7793.974566 7829.098342 2 
7747.029955 7669.983946 7794.091163 7828.887184 2 
7735.785408 7650.068629 7794.242786 7829.021799 0 
7592.900816 7269.798828 7794.186819 7829.184913 2 
7301.234362 6580.751962 7793.817837 7829.105265 0 
7286.944724 6656.962985 7793.980255 7829.211259 0 
7281.130462 6739.196529 7794.197104 7829.208018 1 
7442.929726 7140.095892 7794.143745 7829.07617 2 
7539.925985 7367.868311 7793.924512 7829.205941 0 
7600.102257 7501.765675 7793.843124 7829.137665 2 
7590.084303 7506.83591 7793.909464 7829.23512 0 
7616.884737 7569.846284 7794.170032 7828.869099 0 
7620.848246 7592.237869 7794.224365 7829.04297 2 
7628.950854 7617.954619 7794.004229 7828.831316 0 
7633.901149 7648.951333 7793.789334 7829.080875 0 
7638.797225 7664.183079 7793.907045 7828.97321 2 
7631.80139 7667.081557 7793.929151 7829.153648 0 
7624.097231 7669.022275 7794.041313 7828.931535 0 
7637.108185 7692.200777 7793.916654 7829.242922 2 
7638.797061 7701.836686 7793.862021 7828.895307 0 
7667.824555 7731.836386 7794.188277 7829.02541 0 
7668.041005 7737.942506 7794.106726 7829.192154 0 
7663.143839 7740.146059 7794.023029 7829.191064 0 
7657.079138 7742.180074 7793.914274 7829.130529 0 
7652.011631 7745.093425 7794.034176 7828.858862 0 
7644.8657 7747.825489 7794.040397 7829.223885 0 
7638.776267 7750.207051 7794.216807 7828.823328 0 
7661.793737 7767.828829 7793.968635 7828.868293 0 
7664.915215 7773.906912 7794.143702 7829.20622 0 
7667.099418 7779.000428 7794.148374 7828.993257 0 
7669.896487 7784.921404 7793.934321 7829.225626 0 
7671.851478 7790.098595 7794.106154 7829.113109 0 
7673.942019 7794.890331 7794.221971 7829.057719 0 
7676.96582 7800.012367 7794.031604 7828.992086 0 
7679.969418 7803.998411 7794.065414 7829.013155 2 
7674.07724 7805.784049 7794.131448 7829.242455 0 
7667.94096 7809.02515 7794.198675 7828.790379 0 
7660.775578 7812.097049 7794.033636 7828.922065 0 
7702.768453 7821.217957 7793.897691 7828.869931 2 
7703.066552 7823.753845 7794.233039 7828.758571 2 
7704.894176 7827.20501 7794.06629 7829.109996 0 
7728.967377 7380.847894 7759.852082 7379.186795 0 
7723.096305 7384.167496 7759.94995 7378.923545 0 
7719.201545 7385.831398 7759.916 7378.892505 0 
7715.106548 7387.864674 7759.932884 7379.132126 0 
7711.211723 7390.21652 7759.804191 7379.230176 0 
7698.184476 7394.951881 7759.850107 7379.001028 0 
7687.955726 7399.833146 7760.009599 7379.099902 0 
7556.788156 7444.825889 7759.959898 7379.005532 2 
7419.923783 7502.06198 7759.942327 7378.770089 0 
7424.979476 7512.142277 7759.943634 7378.93102 0 
7580.223675 7458.109633 7760.073525 7379.080223 0 
7582.224308 7462.756409 7759.962348 7379.186031 0 
7711.222928 7405.016539 7760.166207 7379.157405 2 
7711.21842 7405.766314 7759.908433 7378.924147 2 
7710.84946 7408.168032 7759.774049 7378.887616 2 
7712.243921 7408.983947 7760.143148 7378.917704 0 
7713.795926 7410.835475 7759.937793 7379.025402 2 
7716.227752 7411.131426 7760.206422 7379.201427 2 
7721.99106 7409.029947 7760.03165 7378.965368 2 
7723.036356 7409.243998 7759.901399 7379.009284 2 
7723.010537 7410.817606 7759.916689 7378.978958 2 
7725.833921 7412.075121 7760.153105 7378.933381 2 
7727.993153 7412.177154 7760.070996 7378.987074 2 
7728.9111 7411.964144 7760.154778 7378.957027 2 
7729.049619 7413.84257 7760.232428 7379.027371 2 
7729.223996 7416.18885 7759.978798 7378.965056 0 
7730.968797 7416.760448 7760.180424 7378.755153 2 
7731.754446 7416.831823 7760.014437 7379.014984 2 
7731.899429 7419.181126 7760.243941 7378.98335 2 
7730.006247 7425.147046 7760.166731 7379.2494 0 
7731.074199 7426.987727 7759.986473 7379.2353 0 
7732.201871 7428.891251 7759.942326 7379.00149 0 
7732.983821 7431.924754 7759.778862 7378.957817 2 
7734.863605 7432.00766 7760.172874 7379.082402 2 
7712.018108 7491.103298 7760.087555 7379.022554 0 
7717.185121 7487.851992 7759.787538 7378.83455 0 
7720.783117 7485.781479 7760.0679 7379.039364 0 
7726.178525 7483.984631 7760.038764 7379.002724 0 
7730.222358 7481.775237 7759.988024 7379.174229 0 
7733.916488 7480.18035 7759.925719 7379.150309 0 
7737.855104 7475.954581 7759.858126 7378.968709 2 
7741.212241 7479.781 7759.801111 7378.980349 0 
7743.134297 7484.138666 7759.752903 7379.069418 0 
7749.240658 7495.790441 7760.153968 7378.773775 0 
7753.82192 7465.971868 7760.06314 7378.750444 0 
7757.206498 7463.851904 7760.003168 7379.178856 0 
7759.877141 7463.241192 7760.103085 7379.043629 0 
7762.171542 7460.778805 7759.943938 7378.776646 1 
7764.983386 7461.052064 7759.995355 7378.945627 0 
7767.083064 7460.046466 7760.175976 7378.967361 0 
7768.935132 7457.178879 7759.786779 7378.92579 2 
7777.219319 7473.190746 7759.949566 7378.791239 0 
7819.912614 7649.762705 7759.791683 7378.869112 2 
7835.864609 7644.044852 7759.797969 7378.99175 0 
7852.036044 7663.151054 7759.785379 7378.957586 0 
7860.179858 7658.979317 7759.984232 7378.913244 0 
7868.781381 7655.229588 7760.108871 7379.114444 0 
7885.026054 7645.034846 7759.831805 7379.211186 2 
7893.963725 7641.868583 7759.886977 7378.933044 0 
7922.80933 7676.086542 7759.974283 7378.971944 1 
7930.099248 7668.015966 7760.091056 7379.213857 1 
7931.810818 7650.139025 7759.955607 7379.096861 1 
7861.040078 7517.990985 7759.804447 7378.969937 0 
7833.220302 7468.038679 7760.133181 7378.751683 2 
7835.018267 7465.992052 7760.116127 7378.794321 2 
7819.776898 7436.197932 7759.755507 7378.990623 2 
7818.816515 7430.892484 7760.173668 7378.875845 0 
7815.229026 7424.897951 7760.097788 7379.078274 0 
7812.163917 7419.938844 7760.042131 7379.224734 2 
7808.827869 7415.247737 7760.071596 7379.117947 2 
7806.988723 7411.126043 7759.837884 7378.959025 0 
7804.914722 7408.221065 7759.960707 7379.182989 0 
7801.963117 7402.826834 7760.22731 7378.990015 0 
7800.774766 7400.232817 7760.230639 7378.841281 0 
7799.875301 7398.154306 7759.967126 7378.854327 0 
7797.802257 7395.814914 7760.182601 7379.216173 0 
7797.003758 7393.974732 7760.190908 7379.081627 0 
7795.972469 7391.012503 7759.949574 7379.211191 0 
7793.888546 7389.037458 7759.920216 7379.053268 0 
7794.008523 7388.130924 7759.986256 7379.22164 0 
7793.207758 7386.963566 7759.961655 7379.232524 0 
7792.946383 7385.942294 7759.823805 7379.071684 0 
7790.8466 7383.040931 7760.176011 7378.898857 0 
7790.105845 7382.108612 7759.86503 7378.859603 0 
7789.833344 7380.805938 7760.19123 7379.055813 0 
7789.068441 7378.890804 7760.017005 7379.206987 0 
7788.178262 7378.187221 7760.010254 7378.936785 0 
7788.068144 7377.24651 7759.908424 7379.025902 0 
7786.960076 7376.120079 7760.008426 7379.156459 0 
7785.812373 7375.082231 7759.978143 7378.908973 0 
7785.873162 7373.904154 7760.057829 7379.229006 0 
7784.762766 7373.172859 7759.838609 7378.846111 0 
7784.228797 7371.779839 7760.151924 7379.047237 2 
7783.920643 7371.918929 7760.004224 7378.848904 2 
7783.85615 7370.764478 7760.035689 7379.174294 2 
7783.760989 7370.194113 7759.950196 7378.971065 2 
7785.064192 7369.208623 7759.877524 7379.126565 2 
7785.040854 7368.105667 7759.785538 7379.164016 2 
7784.75982 7367.093367 7760.143022 7378.772587 0 
7784.016226 7366.231631 7759.868697 7378.995023 0 
7782.76147 7364.770621 7759.79226 7378.932113 0 
7782.93955 7364.046484 7760.031017 7379.0457 0 
7782.060962 7362.816706 7759.969993 7379.071951 0 
7781.76082 7362.17019 7759.793016 7379.075012 0 
7781.128813 7360.92054 7759.951577 7378.919666 0 
7780.776206 7359.987115 7759.833682 7378.786027 0 
7779.830482 7359.226704 7759.808613 7379.096707 0 
7779.208336 7357.927311 7759.84173 7379.219806 0 
7778.947932 7356.88399 7759.901919 7379.137482 0 
7777.180474 7355.182936 7759.933182 7378.991437 2 
7777.249643 7355.153175 7759.813387 7378.760462 2 
7777.073365 7352.856403 7760.085474 7378.952177 2 
7778.026943 7346.787051 7760.121844 7379.053149 0 
7777.024166 7348.205526 7760.089176 7379.104647 2 
7775.18223 7348.147789 7759.951355 7379.140566 2 
7774.8251 7348.043085 7760.110371 7379.023032 2 
7774.177075 7346.76229 7759.910514 7379.107549 0 
7773.195227 7345.093696 7759.848986 7379.194869 0 
7770.996871 7340.912373 7760.205332 7378.820236 0 
7770.018776 7340.040806 7760.022413 7378.795719 0 
7769.077857 7337.894257 7760.098869 7378.852022 0 
7767.849783 7335.938045 7760.20667 7378.782013 0 
7766.835834 7333.908024 7760.172579 7378.910934 0 
7766.201109 7332.03295 7760.183966 7379.128184 0 
7764.04524 7330.84448 7759.985733 7378.990467 2 
7763.188176 7330.084719 7759.935336 7378.935047 2 
7761.247092 7327.890668 7760.005283 7379.015869 0 
7760.181473 7326.777696 7760.061588 7379.00933 0 
7757.921953 7322.910457 7760.111352 7379.021736 0 
7756.098501 7320.068022 7760.05375 7379.184335 0 
7754.226047 7315.976328 7759.845269 7379.177156 0 
7750.759278 7310.779235 7760.05534 7379.054519 0 
7684.873716 6903.791074 7759.794986 7378.811892 0 
7652.125793 6812.980322 7759.996939 7379.122885 0 
7701.12099 7118.752222 7759.888754 7379.052463 0 
7686.779918 7127.200342 7759.811793 7378.951871 0 
7671.860799 7136.173146 7760.223608 7379.209301 0 
7686.991168 7195.027357 7760.143636 7378.967214 0 
7680.753686 7199.238905 7759.89437 7378.762964 0 
7675.76814 7201.19971 7760.067483 7378.891856 2 
7721.240784 7305.112469 7759.953748 7379.116576 2 
7719.842791 7307.200686 7759.989462 7379.213781 2 
7718.202908 7309.128216 7760.016244 7379.232826 0 
7713.078558 7311.078037 7759.934697 7379.189357 0 
7711.001183 7311.908305 7760.148658 7379.242351 0 
7709.185662 7314.042294 7759.959565 7379.189348 0 
7707.031199 7315.103935 7760.202312 7379.04934 0 
7704.053645 7316.019795 7760.191196 7379.044429 0 
7702.882264 7318.894943 7759.911005 7378.975054 0 
7700.84563 7320.150467 7759.938835 7378.798538 0 
7730.028683 7352.205079 7759.781363 7378.857241 2 
7730.033116 7353.96606 7759.796598 7378.784299 2 
7731.124365 7356.195257 7759.776649 7379.060027 0 
7731.987551 7358.986214 7759.999375 7378.76875 0 
7732.840149 7360.951687 7760.06809 7379.143794 0 
7734.221482 7362.009286 7759.938223 7378.853746 0 
7735.154229 7364.099229 7760.078801 7379.249859 0 
7735.999696 7365.767636 7759.798396 7378.778378 0 
7736.222715 7366.82976 7759.885619 7379.005831 0 
7737.04582 7367.932218 7760.040129 7378.920185 0 
7737.877474 7370.066779 7760.230213 7379.115025 0 
7738.802993 7371.979588 7760.133775 7378.893142 0 
7741.181276 7372.951865 7759.786936 7379.152758 2 
7741.211151 7373.97516 7759.756504 7379.11538 2 
7740.824388 7374.085305 7760.115239 7379.074084 2 
7741.10294 7375.163636 7760.102462 7379.075655 2 
7741.243395 7375.238082 7759.831486 7379.039215 2 
7739.9203 7376.121615 7760.209401 7379.047774 0 
7736.938394 7377.189614 7759.912799 7378.991387 0 
7732.919202 7378.796575 7760.134529 7378.850477 0 
5986.99844 9356.171465 6086.753235 9351.959591 1 
6003.896625 9357.75974 6086.824972 9351.971013 1 
5950.095044 9366.190211 6086.795097 9351.947985 0 
5994.103847 9367.147559 6086.773639 9352.097242 1 
5968.135641 9374.855125 6086.886457 9351.805941 2 
5961.22674 9384.845858 6087.103715 9351.915134 2 
5877.785472 9412.766514 6087.15652 9351.954673 0 
5883.813089 9418.041049 6087.055151 9352.061529 0 
5889.962514 9423.058386 6086.771121 9352.109139 2 
5880.068126 9433.846092 6086.830152 9351.91317 0 
5712.786303 9514.87525 6087.111154 9352.14015 0 
5718.772809 9526.134794 6086.987392 9352.15845 0 
5952.239919 9422.123849 6087.214391 9352.216659 0 
5958.219707 9434.068106 6086.881793 9351.755179 0 
5961.084621 9443.788313 6086.959852 9352.14771 0 
5965.079362 9458.765003 6086.959239 9351.791876 0 
5899.073389 9539.98036 6087.151016 9351.891514 0 
5668.076453 9799.231168 6087.054684 9352.112756 0 
5934.856418 9535.915839 6087.002906 9351.879227 2 
5942.800632 9580.240298 6086.787677 9351.790551 2 
5734.114147 9995.752068 6086.75721 9352.083854 0 
5959.070174 9603.889003 6087.089033 9351.904795 2 
5965.927316 9608.798885 6086.802505 9351.756678 0 
5974.813887 9664.011745 6086.798555 9352.137276 2 
6029.242105 9553.19957 6086.77879 9352.068557 2 
6034.180738 9557.083474 6086.931313 9351.787156 0 
6040.249313 9560.184219 6086.916382 9351.799946 2 
6057.174517 9542.954059 6086.840497 9352.038664 2 
6086.956127 9561.847707 6086.872518 9351.776302 2 
6093.98671 9585.211551 6086.931097 9352.164027 0 
6107.760436 9581.983602 6087.170705 9351.824323 2 
6131.245347 9586.219259 6087.211599 9352.237451 0 
6143.16883 9574.240389 6087.056009 9352.099568 0 
6152.073864 9578.237322 6087.136724 9352.073177 2 
6191.171541 9642.803106 6087.123122 9352.096058 0 
6206.007165 9629.213619 6086.884722 9352.213293 0 
6226.811327 9629.00724 6087.239594 9352.048037 2 
6279.968792 9702.920692 6086.962063 9351.979227 2 
6556.154294 9997.882768 6087.053551 9352.149641 0 
6500.852028 9887.01515 6087.137092 9351.770857 1 
6486.005539 9833.943101 6087.120425 9351.829403 0 
6485.930422 9805.007149 6087.15258 9351.851963 2 
6481.060255 9772.025702 6087.198021 9351.81742 0 
6497.989322 9763.832743 6086.780713 9352.050648 0 
6497.089983 9736.770307 6086.848685 9351.808775 0 
6494.940998 9712.060749 6087.038002 9351.845292 0 
6514.193517 9682.841553 6087.244933 9351.795545 0 
6501.106703 9653.132025 6086.816402 9351.862242 0 
6587.825126 9670.186827 6086.941645 9352.005548 0 
6630.943976 9651.844225 6087.107511 9351.754231 0 
6787.119927 9629.055532 6086.821651 9351.859249 0 
6806.138275 9610.852364 6087.159897 9351.978258 2 
6900.872671 9561.758582 6087.037034 9352.063669 2 
7078.069331 9541.825036 6087.158961 9352.012848 0 
6362.916589 9370.153894 6087.058392 9351.773292 1 
6363.035919 9361.124795 6086.885534 9352.111045 1 
6354.061622 9352.077179 6086.866593 9351.755598 1 
6359.171404 9344.224104 6086.759829 9352.041332 1 
7442.029635 9266.83148 6087.150581 9351.91791 0 
7660.933844 9204.060478 6087.146169 9352.056515 2 
7313.06906 9118.933202 6086.870184 9351.888391 0 
7407.008239 9013.779145 6087.151239 9352.174828 1 
7454.18304 8954.959631 6087.19812 9351.968959 0 
7250.834426 8973.833654 6086.830004 9352.146047 0 
9063.160834 8281.946596 6087.151646 9352.082238 0 
7685.9207 8719.161475 6086.87357 9352.200335 1 
6998.242955 8888.77415 6086.868246 9351.9268 1 
6576.084628 9041.764415 6087.233314 9351.903688 0 
6567.947617 9025.853498 6087.042078 9352.205856 0 
6527.882644 8963.943317 6087.130683 9351.815683 2 
6941.152948 8498.078803 6087.034642 9352.237373 2 
6619.162457 8620.114646 6087.133421 9352.073291 0 
6532.811242 8696.035067 6086.905529 9351.981942 0 
6450.946542 8736.029098 6086.932277 9351.939497 0 
6432.053249 8726.050523 6087.116297 9351.887876 0 
6388.064937 8761.099611 6087.041564 9351.762555 2 
6257.203109 8767.833643 6087.21841 9351.835753 0 
6223.026959 8820.099094 6086.901436 9351.929907 0 
6203.927897 8829.186078 6086.917281 9351.840354 0 
6131.050724 9001.800702 6087.163645 9352.111966 0 
6103.085768 9092.819174 6086.843908 9351.78231 2 
6095.098272 9095.026185 6086.971807 9351.901521 2 
6086.826708 9075.838104 6087.039397 9352.141645 0 
6072.187715 8890.830961 6087.1542 9352.140824 0 
6043.914604 8898.12261 6087.226577 9352.191563 0 
6029.971704 8897.878013 6086.871471 9352.149601 0 
5973.814092 8636.038752 6087.239955 9352.114816 2 
5985.089454 8958.1536 6086.976782 9351.925222 1 
5821.222773 8435.07069 6086.957532 9352.071045 1 
5540.846875 7972.179339 6087.222566 9351.923582 2 
5736.767443 8607.011963 6086.815227 9352.205157 0 
5889.092925 8965.219427 6087.095981 9351.757529 0 
5878.092037 8971.072559 6087.199092 9351.813741 0 
5900.200572 9035.820563 6087.213342 9351.764664 2 
5896.109314 9051.203296 6087.12948 9351.948768 0 
5881.106896 9048.856261 6087.12399 9352.079669 0 
5865.176951 9046.831522 6086.900715 9351.773826 0 
5918.760861 9136.873281 6086.947408 9351.778303 1 
5918.135244 9148.012635 6087.23346 9351.978169 1 
5904.982063 9147.079442 6086.985697 9351.8241 2 
5913.902001 9167.934789 6086.887841 9351.852573 1 
5908.005352 9172.851182 6086.867237 9351.864666 0 
5950.804479 9225.246716 6087.063434 9352.161374 2 
5942.852978 9247.937424 6086.991044 9351.779929 2 
5928.018946 9244.141758 6086.803755 9352.029806 0 
5900.765039 9234.001163 6087.05811 9352.150283 0 
5485.763798 8996.04157 6086.878451 9351.995861 0 
5792.871012 9191.114148 6087.06996 9352.023012 0 
5782.798937 9197.207801 6087.125585 9352.054289 0 
6008.808983 9316.242822 6087.168956 9351.863462 1 
6001.239538 9315.98239 6086.774836 9351.842515 1 
5827.169814 9250.01588 6086.872444 9351.93876 0 
6020.907638 9328.926199 6087.218566 9351.922677 1 
5819.177361 9265.026676 6086.82296 9352.19116 0 
6017.818246 9332.951411 6086.93702 9351.939257 1 
6004.81556 9330.75698 6087.21227 9351.864497 1 
6009.214782 9335.087855 6087.168786 9351.773765 1 
6001.080676 9336.087742 6086.887227 9352.070214 1 
5991.820132 9336.912064 6087.16273 9352.239946 1 
6022.177944 9343.785174 6086.928706 9351.835582 1 
5995.961373 9343.897272 6087.008259 9351.888734 1 
5840.173948 9337.081219 6086.829894 9352.242194 0 
5977.78263 9349.016914 6086.931451 9351.848189 1 
5719.023894 6317.893721 5863.962687 6316.988676 0 
5721.231576 6321.881473 5864.012441 6317.062252 0 
5724.219215 6327.149668 5863.882466 6316.789347 0 
5726.811732 6330.795196 5863.779293 6317.239676 2 
5720.83037 6335.957998 5863.825257 6317.041743 0 
5709.10527 6342.083516 5864.180477 6317.029218 0 
5622.914735 6363.760371 5864.021412 6316.947365 1 
5644.027285 6405.202863 5864.045555 6316.801179 2 
5646.846584 6410.758241 5864.039855 6316.82816 0 
5691.889714 6425.802297 5864.140412 6316.858929 2 
5694.201965 6432.772879 5863.898276 6316.763697 0 
5816.818075 6351.927568 5863.753372 6316.898444 2 
5824.135566 6348.82863 5864.190187 6316.990837 0 
5831.162146 6345.120664 5863.770055 6316.826881 0 
5841.131035 6338.041467 5864.024247 6316.90832 2 
5841.99433 6337.819801 5863.959499 6317.090915 2 
5842.828043 6338.249355 5864.169075 6316.967757 2 
5842.801651 6339.059487 5864.076686 6316.753616 2 
5843.082366 6340.224961 5863.767313 6317.15044 2 
5844.902529 6343.770685 5863.798885 6316.788096 0 
5845.849314 6346.239072 5864.028932 6316.76146 0 
5847.109736 6348.048988 5863.838342 6316.990772 0 
5846.840455 6349.112588 5864.149092 6317.084785 0 
5848.18239 6349.858591 5863.9257 6316.760432 0 
5848.857946 6350.844775 5863.978189 6316.909598 0 
5850.154262 6352.804875 5863.913214 6316.986628 0 
5849.779836 6353.930526 5863.887068 6316.932365 0 
5850.951211 6354.935953 5863.970461 6317.050526 0 
5852.925025 6359.249393 5864.061986 6316.784761 0 
5854.048381 6360.150328 5864.025533 6317.138836 0 
5856.012916 6363.924625 5863.973621 6316.945306 0 
5857.033216 6366.149321 5863.955738 6317.141162 0 
5859.244096 6370.183927 5863.80076 6317.148358 0 
5860.238802 6370.963973 5863.884986 6316.768638 0 
5862.1445 6374.022054 5863.951003 6316.845711 2 
5864.208007 6388.171464 5864.146237 6316.883032 0 
5866.170857 6385.958223 5863.917793 6316.969238 2 
5867.858551 6386.193326 5863.858074 6317.121467 2 
5870.867951 6394.081695 5863.816773 6317.151167 0 
5873.981016 6399.022511 5864.042329 6316.975112 0 
5876.956438 6405.093089 5863.873471 6316.94524 0 
5881.807062 6415.008457 5863.963877 6317.201562 0 
5886.780511 6422.16488 5863.797273 6317.238519 2 
5892.086343 6429.19351 5863.871551 6317.0072 2 
5910.901733 6465.039344 5864.226439 6317.010284 2 
5954.98267 6571.834512 5863.881751 6317.100621 2 
5963.166207 6569.948524 5864.001788 6316.897224 0 
6011.221035 6657.794117 5864.122336 6316.927473 0 
6025.137206 6660.245807 5864.122712 6317.194269 2 
6048.004264 6679.836589 5864.145831 6317.034775 0 
6061.751469 6678.193104 5864.023294 6317.087813 2 
6083.136615 6688.144845 5863.845013 6316.788348 2 
6115.934189 6713.821452 5864.048632 6317.166859 0 
6122.905964 6699.180383 5864.01748 6316.822171 2 
6193.878907 6742.769268 5863.969395 6316.849942 2 
6568.813385 7115.841731 5864.027415 6317.200591 0 
6078.837538 6545.900127 5864.14486 6317.091802 0 
6070.986716 6524.040691 5863.876578 6316.988185 0 
6030.983795 6474.149872 5863.825998 6316.87041 0 
6025.044716 6458.921011 5863.908758 6317.228905 2 
6031.992463 6456.207389 5864.145764 6317.148427 0 
6001.137773 6423.913244 5864.220598 6316.76668 0 
5994.932512 6412.939993 5863.866621 6316.995897 0 
5992.031725 6404.144036 5863.946488 6317.119263 2 
5989.794163 6396.841348 5863.961066 6317.030879 0 
5985.132039 6389.087643 5863.769065 6316.865834 0 
5983.987515 6382.845063 5863.986244 6316.782232 2 
5979.016074 6376.145002 5863.761137 6316.758536 2 
5976.102391 6370.1569 5864.156963 6316.990164 0 
5972.820144 6365.127561 5864.006843 6317.002656 0 
5969.817554 6359.123465 5864.248553 6317.099279 0 
5968.017501 6354.945041 5863.968542 6317.061663 0 
5965.036389 6350.179608 5863.842543 6316.918429 0 
5963.017251 6345.861607 5864.034263 6316.754766 0 
5960.95667 6341.770507 5863.786998 6317.222744 0 
5959.165509 6338.798134 5864.23128 6317.0179 0 
5957.205035 6335.138243 5863.758063 6316.775179 0 
5956.015804 6332.014907 5864.027834 6317.083359 0 
5953.888371 6329.026387 5863.932638 6317.155872 0 
5953.221428 6326.15118 5863.967535 6317.007817 0 
5951.080788 6323.060078 5864.176246 6316.848039 0 
5950.171685 6319.960508 5863.852805 6316.878355 2 
5954.981015 6316.889803 5863.851098 6316.896524 0 
5958.937937 6314.832378 5864.164424 6316.892972 0 
5966.220622 6311.172487 5863.91815 6316.986426 0 
5973.937394 6307.195984 5863.819785 6317.075765 0 
5981.972371 6303.002423 5863.981636 6316.943799 0 
5992.903603 6297.199171 5864.201616 6317.23439 0 
6005.009249 6291.127861 5863.832429 6316.930934 0 
6057.83837 6273.935234 5864.059289 6317.069385 2 
6146.075036 6245.160387 5864.215909 6316.762973 0 
6156.242766 6233.130333 5863.905945 6317.213387 0 
6199.05282 6208.074095 5863.949813 6317.240214 0 
6270.020079 6171.019598 5864.065979 6317.242451 0 
6750.77202 5932.797615 5863.936249 6316.925623 0 
7154.246786 5709.887865 5863.910013 6317.006036 1 
7392.765727 5537.992442 5864.18697 6316.854097 0 
7831.177676 5236.996258 5864.173482 6317.002712 2 
6519.906646 5929.139392 5864.015686 6316.899411 2 
6494.019725 5918.171631 5863.862798 6316.822545 0 
6508.995726 5879.062611 5863.812759 6316.765805 0 
6237.832209 6045.128738 5863.758256 6316.854229 2 
6143.176353 6099.944505 5864.029852 6317.173139 0 
6069.08237 6147.189865 5863.929175 6317.098097 2 
6064.932307 6139.866144 5864.202193 6316.859982 0 
5994.112403 6195.125676 5864.112694 6316.769048 2 
5953.015067 6227.87838 5863.918459 6316.784792 0 
5941.80001 6233.031258 5863.857337 6317.045736 0 
5934.843869 6235.920096 5864.061541 6316.926078 0 
5926.798834 6240.069797 5864.030307 6317.225187 1 
5921.764302 6241.810159 5864.148326 6317.096672 0 
5916.750024 6243.827501 5863.944769 6316.93233 2 
5914.943645 6241.896963 5864.042313 6316.806048 0 
5913.772638 6238.905007 5863.825097 6317.037705 0 
5912.033387 6235.993556 5864.072497 6317.083397 0 
5910.774814 6232.179834 5863.879134 6316.868683 0 
5908.84993 6229.190675 5864.04476 6316.898764 0 
5907.010472 6224.825067 5863.873951 6317.024774 0 
5904.885226 6220.772277 5863.871446 6316.88525 0 
5897.849777 6231.066215 5864.06758 6317.043422 1 
5897.213178 6224.859893 5864.099471 6317.235816 1 
5897.0149 6214.174567 5864.023521 6316.798286 1 
5897.918123 6198.846018 5864.131684 6316.942937 0 
5889.775852 6216.760817 5864.061619 6316.875782 1 
5889.201492 6203.85638 5864.024546 6316.961964 2 
5881.931447 6223.148496 5864.236738 6317.066673 1 
5883.170773 6194.858184 5864.201923 6316.77055 0 
5880.174399 6190.019503 5864.063973 6317.137577 0 
5878.129396 6167.913443 5864.123393 6316.894295 0 
5872.83801 6171.896913 5863.942582 6317.006134 2 
5866.992931 6223.824266 5864.19907 6317.018783 1 
5863.835083 6162.01069 5864.144565 6316.786575 0 
5857.117069 6118.91911 5863.998539 6316.798516 2 
5849.817607 6102.985277 5864.115189 6317.23838 0 
5844.093461 6110.067112 5863.75893 6317.017861 0 
5837.836615 6111.072903 5863.905437 6317.21601 0 
5831.236346 6111.77883 5863.860306 6316.824357 0 
5824.925743 6113.052888 5864.08049 6317.168675 0 
5816.127153 6102.02956 5863.937457 6317.212236 0 
5748.79025 5867.832022 5864.248811 6317.157319 0 
5738.001132 5884.99735 5864.205835 6317.068739 0 
5692.232627 5838.071024 5864.057119 6317.076089 0 
5639.888136 5751.066049 5863.843949 6316.974751 2 
5542.888952 5574.999387 5863.940761 6316.875298 0 
5414.028217 5498.051067 5863.949655 6317.20396 2 
5733.853955 6098.780145 5864.122635 6317.231108 2 
5746.059705 6131.810092 5864.193344 6317.099955 0 
5739.892114 6135.192155 5864.007275 6317.143246 0 
5797.939505 6227.96311 5863.961985 6316.922132 0 
5816.784134 6261.769104 5864.248221 6316.92227 2 
5816.085153 6262.84217 5864.147021 6317.224105 2 
5814.091557 6263.837782 5863.849403 6316.869773 0 
5812.138849 6265.049058 5863.823733 6317.242804 0 
5809.079203 6267.196368 5864.223912 6316.888908 0 
5806.75646 6268.167256 5864.238863 6316.898574 0 
5805.10941 6268.996138 5863.79182 6316.798916 0 
5803.209248 6270.003805 5863.971048 6317.243382 0 
5800.022909 6270.969269 5863.915652 6316.858063 0 
5797.061439 6272.812673 5863.832168 6316.902996 0 
5794.900456 6273.931571 5864.022769 6316.789305 0 
5793.230629 6275.096502 5863.782109 6317.059832 0 
5791.04287 6276.756021 5864.19874 6317.04933 2 
5762.173276 6266.187603 5864.197904 6317.032686 0 
5792.933741 6284.239724 5864.081602 6316.892989 2 
5793.993529 6287.80265 5863.886371 6316.766438 0 
5795.021919 6290.052023 5863.874501 6316.833358 0 
5796.114697 6292.956669 5863.986354 6316.765152 0 
5796.13824 6295.759123 5863.804457 6317.118869 0 
5794.105626 6296.836566 5863.928701 6316.898496 0 
5789.842587 6297.87744 5864.197826 6316.765863 0 
5787.815044 6300.14573 5864.048549 6316.998785 2 
5744.135453 6294.880151 5864.141774 6316.878982 0 
5737.932802 6297.778145 5863.89542 6317.204721 0 
5732.080168 6301.019921 5863.788079 6316.944865 0 
5727.22659 6304.024433 5863.960018 6317.114831 0 
5714.033557 6308.014475 5863.9837 6316.889182 0 
5716.101041 6313.1624 5864.037678 6317.193628 0 
9796.789841 6117.985504 9851.209491 6116.854884 1 
9735.881234 6121.00804 9851.103669 6116.766687 2 
9803.138192 6120.995443 9850.895669 6116.820993 1 
9787.023588 6124.04109 9850.775714 6116.853756 1 
9803.811011 6123.813793 9851.048621 6116.787601 1 
9791.088227 6126.758639 9851.152432 6116.871784 1 
9808.023114 6125.886132 9851.010966 6116.874155 1 
9741.798532 6141.798644 9850.817783 6116.838373 0 
9764.034148 6139.777274 9850.943257 6117.165382 1 
9782.035315 6136.796926 9851.182069 6116.923506 1 
9768.042369 6143.827738 9850.9945 6116.815957 1 
9753.118828 6153.020214 9850.919714 6117.179839 1 
9781.084007 6145.218335 9851.21744 6116.922234 1 
9779.226974 6149.119872 9851.044018 6117.000088 1 
9777.756004 6151.804984 9851.124243 6116.804536 1 
9810.853628 6137.192026 9850.892909 6117.137776 1 
9718.219301 6190.086166 9851.053158 6117.004615 0 
9777.133092 6160.985227 9851.178121 6116.925462 1 
9798.062966 6150.922621 9850.991419 6116.931793 1 
9790.192835 6158.161133 9850.861632 6117.026842 1 
9762.129468 6181.829072 9851.199077 6117.106442 2 
9810.198944 6148.993094 9850.85653 6117.204948 1 
9814.048078 6148.230773 9850.759483 6117.151706 1 
9776.1728 6183.902392 9851.039483 6117.1421 1 
9797.238558 6167.842641 9850.896715 6117.12165 1 
9788.077868 6179.824837 9850.797112 6116.890834 1 
9813.997458 6156.038531 9851.072627 6116.940293 1 
9802.949664 6171.184259 9851.217135 6116.829131 1 
9781.763331 6200.166212 9851.185573 6117.212275 0 
9783.909306 6202.792103 9851.167223 6117.207385 0 
9786.772877 6205.176706 9851.109091 6117.195676 2 
9808.829098 6177.898574 9851.087776 6116.817656 1 
9786.991215 6219.234491 9851.189306 6116.819083 2 
9780.809328 6235.236418 9850.959917 6117.056786 0 
9789.024949 6230.782544 9851.247078 6117.224612 0 
9795.216803 6227.214214 9850.803744 6117.230134 0 
9801.130425 6224.239317 9851.192409 6116.789732 0 
9805.781421 6222.109632 9851.247116 6116.804297 0 
9811.036339 6219.106207 9851.249973 6117.115437 0 
9814.754781 6217.08775 9851.183093 6116.995995 0 
9818.072241 6216.1224 9851.065078 6117.131569 2 
9820.108818 6221.774995 9850.938355 6116.883767 0 
9821.807539 6226.935433 9850.858379 6116.774342 0 
9824.899647 6230.912123 9850.754476 6116.780072 0 
9828.90144 6232.196886 9850.819804 6116.932861 2 
9832.056518 6236.81692 9850.987158 6116.842857 0 
9835.173127 6242.987132 9851.208294 6117.177908 0 
9837.824881 6248.141387 9850.923903 6117.147123 0 
9842.013787 6261.238981 9851.028692 6116.872604 0 
9845.763976 6259.217047 9851.006371 6116.821515 0 
9850.90248 6261.11475 9850.845858 6117.052127 0 
9854.776873 6267.850334 9851.082199 6116.928314 0 
9860.79722 6279.152003 9851.111175 6117.103738 0 
9867.218923 6289.848333 9851.196595 6117.14205 0 
9880.085465 6353.154888 9851.069957 6117.160346 0 
9881.046275 6306.24386 9851.057469 6116.810062 0 
9886.232842 6299.83616 9850.932667 6117.246818 2 
9893.803207 6313.189038 9850.818333 6116.955687 2 
9944.053788 6481.914191 9850.757814 6117.080661 2 
9917.014525 6347.090013 9850.758975 6117.061745 0 
9921.992015 6336.120149 9850.915483 6116.960938 2 
9928.218482 6333.862077 9850.852988 6117.053947 0 
9934.766965 6331.172946 9850.964292 6117.063241 0 
9921.166806 6280.771761 9851.123303 6117.149648 2 
9926.857921 6278.80597 9851.146465 6116.911128 0 
9939.245007 6200.214798 9851.116815 6117.048795 2 
9933.878989 6191.124628 9850.879456 6117.143514 0 
9928.964641 6181.888431 9850.955259 6117.206657 0 
9924.75858 6175.120741 9850.917595 6117.227062 0 
9922.232818 6169.020583 9851.031009 6117.249784 0 
9919.943528 6164.245301 9851.063025 6116.860334 2 
9920.767062 6162.936328 9850.759982 6116.874983 2 
9924.992297 6162.156447 9851.036111 6116.987304 0 
9927.121246 6159.902926 9850.7861 6116.750235 0 
9930.777555 6157.915556 9851.143749 6116.992196 0 
9933.053987 6156.849008 9850.948853 6117.062567 0 
9936.219749 6155.116447 9851.039629 6117.202567 0 
9939.88703 6152.820638 9851.202351 6117.080559 0 
9942.815939 6151.015376 9851.190893 6116.833001 0 
9947.201703 6149.200875 9850.957984 6116.944001 0 
9951.107322 6147.244096 9851.181305 6116.978568 0 
9955.897022 6144.217405 9850.978803 6116.924577 0 
9959.882961 6141.872551 9851.166773 6117.186948 0 
9964.971559 6138.865625 9850.999515 6116.941308 0 
9970.232073 6135.789144 9850.893875 6116.869103 0 
9975.859782 6132.846227 9851.199661 6116.925721 0 
9981.111602 6130.140554 9851.008722 6117.063306 0 
9988.091429 6126.216706 9850.757306 6116.948751 2 
9993.210802 6020.188611 9851.177319 6116.857824 0 
9974.156016 6027.906121 9851.0324 6116.788977 0 
9972.028673 6023.949173 9851.225924 6116.750232 0 
9946.064799 6037.975439 9850.94154 6117.046871 2 
9945.014583 6035.085415 9851.165974 6117.124365 0 
9942.181642 6032.115635 9850.800086 6117.043244 2 
9931.00619 6037.058808 9850.85655 6116.847619 2 
9929.025514 6034.863856 9851.046369 6116.986315 0 
9925.802467 6031.973688 9851.094139 6117.208483 2 
9888.129809 6071.876539 9851.24746 6116.908482 0 
9885.075713 6073.223384 9850.908714 6116.890511 0 
9879.948824 6076.100254 9851.187382 6117.213407 2 
9877.935669 6076.103356 9851.087773 6116.867311 2 
9877.968992 6075.137859 9851.160555 6117.225181 2 
9876.946667 6073.767105 9850.8228 6117.22218 0 
9875.880961 6072.119169 9850.958496 6116.933428 0 
9874.842857 6069.802635 9850.891912 6117.222666 0 
9872.929174 6068.889372 9850.881148 6116.754886 2 
9870.862756 6070.039862 9850.895397 6117.06158 0 
9868.890115 6070.83278 9851.024987 6117.075784 0 
9867.186136 6071.86276 9851.193095 6116.905128 0 
9864.750619 6073.10365 9850.880309 6116.947285 0 
9863.120755 6073.953108 9850.919466 6116.751716 0 
9861.822277 6073.127961 9850.935145 6116.915134 2 
9861.180596 6072.077056 9850.887801 6116.85977 0 
9859.216428 6070.018949 9850.864656 6116.829184 2 
9857.808811 6070.010054 9851.140764 6116.948926 2 
9856.092833 6069.915751 9850.774711 6117.028969 0 
9855.028511 6071.217806 9851.184097 6117.029129 0 
9853.071456 6071.814406 9851.226415 6116.942211 0 
9852.017514 6071.895881 9850.943927 6117.089791 0 
9850.773842 6073.129072 9850.754925 6117.204438 0 
9848.956128 6073.892726 9850.814208 6116.922556 0 
9848.161675 6074.928864 9851.001739 6117.220486 0 
9847.188918 6074.892503 9850.919412 6117.031751 0 
9845.058254 6075.944123 9850.810721 6116.836764 0 
9843.911929 6077.244818 9851.115894 6117.233385 0 
9842.809224 6077.092309 9850.925596 6117.076737 0 
9842.23819 6078.119523 9850.916528 6116.762032 0 
9840.998595 6077.921454 9851.21647 6117.204723 0 
9839.06418 6078.780678 9850.877279 6116.975855 0 
9837.959542 6080.129018 9850.946341 6116.89846 0 
9836.771521 6081.115753 9851.180212 6117.079775 0 
9835.809876 6081.240933 9851.16654 6116.971804 0 
9835.235751 6082.032434 9850.955189 6116.794974 0 
9833.874742 6082.130785 9851.121712 6116.862932 0 
9833.000308 6082.78824 9850.874964 6117.248903 0 
9831.959694 6082.841434 9851.203626 6116.773874 0 
9830.872112 6083.830905 9850.999729 6117.081654 0 
9830.209924 6084.19607 9851.230115 6117.231445 0 
9829.061823 6085.160327 9851.061221 6117.121698 0 
9827.151259 6085.97776 9850.843502 6117.13701 0 
9825.760194 6088.048691 9851.181984 6116.884936 2 
9825.929476 6089.053696 9850.997868 6117.179784 2 
9827.091936 6093.122832 9851.178687 6116.801631 2 
9827.214266 6094.132314 9850.825505 6116.836378 2 
9826.213219 6094.075234 9851.168033 6117.173143 2 
9824.021303 6095.148148 9851.154588 6116.833126 0 
9822.058474 6095.965809 9851.204824 6116.959734 0 
9820.193569 6096.798326 9850.846744 6117.203763 0 
9819.097018 6097.778728 9850.8387 6116.776494 0 
9818.082424 6099.086568 9851.206278 6116.92436 2 
9817.9594 6100.134965 9850.975991 6116.923667 2 
9818.017279 6101.051496 9851.010045 6116.980498 2 
9816.876729 6100.928078 9850.903641 6117.148032 2 
9817.826226 6103.80823 9851.231158 6117.1347 0 
9820.024039 6106.185982 9850.844433 6116.967608 2 
9820.234309 6106.941177 9850.921371 6117.081326 2 
9819.969905 6108.010071 9851.10782 6116.802329 2 
9819.846639 6108.064098 9850.97669 6117.056039 2 
9816.949064 6109.202681 9851.229706 6117.216342 0 
9816.004176 6109.989751 9850.946841 6117.130905 0 
9814.167829 6111.100482 9851.028938 6117.244054 0 
9813.158712 6111.010096 9851.128754 6116.93275 0 
9811.946078 6113.223187 9851.150358 6116.930387 2 
9709.914364 6103.82173 9850.761713 6117.13427 0 
9791.081801 6114.119534 9851.186599 6117.17844 1 
9688.933632 6111.913288 9850.984479 6117.132696 0 
7797.865969 6677.964184 7838.099038 6677.120145 0 
7796.203935 6678.795879 7838.00105 6677.121764 0 
7795.146361 6679.779988 7838.115818 6677.055072 2 
7764.040084 6684.994572 7838.237823 6677.236162 0 
7765.967759 6687.138181 7837.916549 6677.132123 0 
7767.209911 6688.928263 7838.016393 6677.041711 0 
7767.797797 6690.952992 7837.970151 6676.981429 0 
7769.11628 6693.204629 7837.864124 6677.232249 0 
7769.918814 6695.213162 7838.102394 6676.872749 0 
7770.759041 6696.853444 7838.244513 6677.155402 0 
7772.883432 6699.11033 7837.960474 6677.173516 2 
7773.854902 6699.948296 7838.159678 6677.072661 2 
7766.836477 6704.826227 7837.954784 6676.796388 0 
7442.00449 6849.221177 7838.088099 6677.052286 0 
7448.924169 6860.80825 7837.783715 6676.790449 0 
7464.762879 6867.897839 7837.772697 6676.931693 0 
7655.861001 6778.125091 7838.054442 6676.870042 2 
7767.228535 6720.048955 7837.775444 6676.861966 2 
7793.909285 6705.985918 7837.785482 6677.014187 0 
7804.184214 6701.19516 7837.836848 6676.770691 2 
7803.771387 6702.041632 7837.817079 6677.025876 2 
7804.01281 6703.155178 7837.828162 6677.186979 2 
7804.213428 6704.861877 7838.227427 6677.226308 0 
7805.009716 6705.750125 7837.908001 6677.120718 0 
7806.125216 6708.212443 7838.24076 6677.10375 0 
7806.011398 6708.766204 7838.215716 6677.170683 0 
7807.002121 6709.751198 7837.93487 6676.936335 0 
7808.196358 6712.021718 7837.957027 6677.217744 0 
7808.813351 6713.024106 7837.993621 6677.07616 0 
7808.929284 6714.071783 7838.013139 6676.892713 0 
7810.18366 6714.990566 7837.86902 6676.943377 0 
7810.990691 6717.027021 7837.814094 6676.865907 0 
7811.989464 6718.804854 7838.219657 6676.750861 0 
7812.821058 6720.185373 7838.171544 6677.073179 2 
7814.186571 6719.856414 7837.759515 6677.132929 2 
7731.128133 6885.966541 7838.100673 6677.191483 0 
7737.240647 6891.844294 7838.017644 6676.919932 2 
7807.166077 6748.780782 7838.062644 6677.099738 2 
7810.021349 6748.181664 7837.793114 6676.76204 0 
7812.958685 6745.857208 7837.877946 6677.198149 0 
7815.912062 6743.847603 7838.19901 6676.98312 0 
7818.782976 6743.120554 7837.806299 6677.219547 2 
7820.226969 6743.815814 7838.102477 6677.105101 2 
7822.032355 6747.95315 7838.046584 6677.023002 0 
7824.047444 6749.814228 7838.192934 6676.963521 2 
7808.845011 6860.005578 7837.813259 6677.116359 0 
7766.937243 7235.856373 7838.128399 6677.145928 2 
7823.963581 6818.756345 7838.094076 6677.125643 2 
7828.853949 6815.043086 7837.858763 6676.886925 0 
7832.91364 6812.915063 7837.856472 6676.890609 0 
7837.980876 6810.208949 7838.24571 6676.763231 0 
7841.912099 6808.042295 7838.036234 6677.209543 0 
7846.106523 6804.979168 7837.923064 6677.201533 2 
7850.234746 6804.986323 7838.067893 6676.921989 0 
7854.092696 6802.946292 7837.817917 6676.806277 0 
7856.952637 6801.161993 7838.18192 6677.056586 0 
7860.955079 6798.790683 7838.193511 6677.118719 2 
7867.955746 6812.799983 7837.759329 6677.186622 0 
7870.758931 6805.755039 7838.199854 6676.92103 2 
7874.047334 6803.986088 7837.880573 6676.903856 2 
7869.215256 6773.053637 7837.85539 6677.200002 2 
7870.78996 6770.173282 7837.871991 6677.132655 0 
7872.869574 6765.939908 7838.188932 6677.072211 0 
7874.851901 6764.120852 7837.878797 6677.05698 2 
7878.161535 6762.822308 7837.925699 6676.867281 0 
7879.87229 6760.935028 7837.803904 6676.881222 0 
7882.940066 6758.753758 7838.052252 6677.2374 2 
7884.989845 6759.182825 7837.891256 6676.955101 2 
7889.986462 6759.996646 7837.905103 6677.026422 0 
7892.919929 6759.027094 7837.909077 6677.039503 0 
7896.217001 6756.848009 7837.861714 6676.818902 0 
