ply
format ascii 1.0
element vertex 946
property double x
property double y
property double x_origin
property double y_origin
property int lab
end_header
6.210506299 5676.040179 45.86118653 5685.169248 2 
4175.815329 5039.971833 4262.052005 5038.806339 0 
4175.816809 5041.790463 4261.771718 5038.851305 0 
4177.109623 5044.942841 4262.018448 5038.884228 0 
4189.063318 5046.099671 4261.852698 5038.830118 2 
4186.962058 5048.87554 4262.070031 5038.919721 0 
4186.147611 5051.149378 4261.791509 5038.852213 0 
4185.156673 5056.890855 4262.175178 5039.117179 0 
4185.181034 5058.786364 4262.036427 5039.246364 0 
4184.008197 5064.838431 4261.802702 5039.075006 0 
4183.878894 5066.824421 4262.176311 5039.238517 2 
4184.017261 5069.944759 4261.872744 5038.830579 2 
4168.79443 5078.975443 4261.910697 5039.006488 2 
3946.100982 5188.230727 4262.176209 5038.998593 0 
3943.130105 5202.217718 4262.100806 5039.036778 0 
3992.858573 5188.025984 4261.903957 5038.789607 0 
4007.062348 5191.190383 4261.785971 5038.820545 0 
4012.778815 5208.838673 4262.14555 5038.907708 0 
4010.913094 5222.071861 4261.896225 5039.180355 0 
4056.766621 5199.018969 4261.760934 5038.811051 0 
4067.244412 5200.921631 4262.067539 5039.095394 0 
4076.902358 5201.993748 4261.843988 5038.782464 0 
4087.961465 5203.194794 4262.069242 5039.070038 2 
4084.970778 5216.223199 4262.109646 5038.783125 0 
4083.163582 5229.145617 4261.85367 5039.192396 0 
4080.23429 5245.249221 4261.850105 5038.897384 0 
4086.071082 5252.99633 4261.827739 5039.087703 1 
4129.765299 5209.838673 4262.148753 5038.759711 0 
4137.010304 5211.966292 4262.105106 5039.162662 0 
4144.21004 5213.199093 4262.195126 5038.921505 0 
4151.143887 5214.014368 4262.241543 5038.864665 0 
4157.987566 5214.101189 4261.89779 5038.901148 2 
4153.996806 5235.001461 4261.843545 5038.981096 0 
4150.000681 5257.943649 4262.12848 5038.821763 0 
4138.189979 5303.206219 4262.159466 5039.205279 0 
4142.794892 5313.05822 4262.21499 5039.055196 0 
4137.774512 5352.070096 4261.967858 5039.234551 2 
4197.019189 5220.912984 4261.906056 5038.913077 0 
4209.177351 5222.8976 4262.027742 5038.914917 0 
4220.248789 5225.175532 4262.066066 5038.995595 0 
4225.926993 5226.15961 4262.226691 5039.177674 0 
4217.853259 5319.105171 4262.249437 5038.793239 2 
4200.061389 5532.158903 4262.248517 5039.106281 2 
4234.967123 5323.213507 4261.911477 5038.991635 0 
4244.033603 5324.129335 4261.976186 5038.802792 0 
4252.792318 5321.132243 4261.965869 5039.219669 0 
4261.779842 5260.24361 4261.884587 5038.778631 2 
4269.169142 5263.200652 4262.024226 5038.846135 0 
4283.110263 5265.000917 4261.773808 5039.213522 0 
4297.856088 5267.773246 4261.756761 5039.167477 0 
4346.182149 5274.755278 4262.023759 5038.899272 0 
4355.218786 5276.185235 4262.140907 5039.002389 0 
4365.06457 5277.867093 4262.055181 5039.106888 0 
4374.249336 5278.771049 4262.076557 5038.779178 0 
4383.764659 5281.211144 4261.80781 5039.183801 0 
4428.161797 5342.082036 4261.779936 5039.022059 0 
4440.832953 5342.803745 4261.985581 5038.939041 0 
4455.82699 5344.992342 4261.856519 5038.75914 2 
4471.99762 5349.130277 4261.908412 5038.966406 0 
4451.065512 5298.799319 4262.218794 5038.880082 0 
4437.916412 5252.023975 4262.23697 5038.915748 0 
4433.045024 5233.063528 4261.944926 5039.059684 0 
4428.024672 5216.002736 4261.993485 5038.936469 0 
4423.834772 5202.023421 4262.208528 5038.917725 0 
4431.077166 5198.94411 4262.106766 5039.154156 0 
4410.186452 5170.213285 4262.163296 5038.934072 0 
4405.093562 5149.821708 4262.150478 5038.909074 0 
4402.871027 5142.119272 4262.039157 5039.037439 0 
4400.893247 5134.026127 4262.203187 5039.188272 0 
4398.839654 5125.898113 4261.997955 5039.114326 0 
4397.150849 5119.241441 4261.800795 5039.235621 0 
4396.014862 5112.759323 4261.903345 5038.842028 0 
4363.953433 5090.760111 4262.246184 5038.889885 2 
4362.223396 5087.159479 4262.073957 5039.066958 0 
4361.231187 5081.974435 4262.226032 5038.852214 0 
4358.843707 5078.015189 4262.139653 5038.986954 0 
4357.791316 5074.09284 4261.925226 5038.88097 0 
4357.240953 5070.173182 4262.245297 5039.141802 0 
4356.164622 5066.796092 4262.127422 5038.929484 0 
4354.805415 5062.780768 4262.021512 5039.008848 0 
4353.790879 5060.017695 4262.148733 5038.764275 0 
4352.927175 5056.97269 4262.081233 5038.908362 2 
4363.197124 5056.057266 4262.010575 5038.790831 0 
4369.822455 5052.900228 4262.027786 5038.86377 0 
4378.243067 5051.203012 4261.994741 5039.23402 0 
4389.126194 5047.990037 4262.125822 5039.040816 0 
4401.036129 5044.003244 4262.2203 5039.091544 0 
4415.034012 5038.991812 4261.850393 5039.074891 2 
4616.759507 5028.249126 4262.089166 5038.936682 0 
4614.971815 5016.920399 4262.095043 5038.91894 0 
4612.227665 5005.855619 4261.959771 5038.80012 0 
4343.005847 5018.237557 4261.91389 5038.998914 2 
4342.190569 5016.158631 4261.982934 5039.066763 2 
4340.898668 5013.858756 4261.857579 5039.184797 0 
4340.112 5010.827879 4262.026342 5038.896012 0 
4340.069691 5009.126734 4262.220902 5039.079198 0 
4339.12586 5006.060068 4261.765879 5038.847675 0 
4338.230467 5004.110923 4262.016615 5039.208132 0 
4194.216542 5003.226386 4261.758252 5038.972388 0 
4194.213942 5004.922142 4262.221302 5039.154511 0 
4193.830772 5007.954237 4261.971274 5038.97944 2 
4192.062993 5010.078853 4261.914238 5038.924993 0 
4186.156731 5009.190579 4262.071005 5038.976422 0 
4192.067313 5015.041908 4261.80562 5038.943173 0 
4191.851976 5016.821499 4262.040848 5038.832443 0 
4192.182422 5018.807463 4261.790576 5039.148963 0 
4190.783848 5020.798827 4261.871352 5039.247791 0 
4190.970969 5023.842654 4262.152302 5039.051741 0 
4190.046891 5027.873576 4261.781182 5038.859884 0 
4190.202428 5029.945419 4262.034878 5039.10916 0 
4188.885998 5032.855883 4261.835582 5039.203312 0 
4189.147791 5036.891201 4261.896485 5039.249767 2 
1736.9627 8374.187333 2404.83221 8371.895122 0 
2072.244796 8393.872786 2404.794086 8371.778645 0 
2071.921613 8403.915438 2404.776436 8372.142582 2 
1414.008092 8499.178738 2404.944323 8371.804983 0 
1909.802314 8451.975505 2404.914867 8371.754742 2 
1973.170924 8455.199745 2405.113902 8371.806922 0 
2075.805627 8457.199484 2404.760234 8372.203418 2 
2080.840685 8466.906719 2405.203185 8372.053385 2 
2078.844053 8478.785395 2405.198508 8371.838849 0 
2132.908181 8481.242593 2404.867494 8372.079794 0 
2155.908031 8480.89393 2404.972376 8372.166123 0 
2170.822667 8483.166699 2405.221105 8371.874981 2 
2349.892204 8400.885972 2404.879723 8371.813128 2 
2349.835717 8402.243625 2404.870051 8371.891344 2 
2351.193108 8404.880285 2404.844763 8371.783793 0 
2352.037004 8405.797947 2405.087178 8372.131056 0 
2352.833343 8408.035686 2405.219905 8371.991523 0 
2354.028279 8409.837399 2404.821317 8372.18631 0 
2353.981329 8411.043693 2405.102433 8372.053996 0 
2354.960392 8413.073538 2405.178977 8372.102596 0 
2356.20951 8414.8087 2405.165725 8371.795227 0 
2356.802325 8416.785775 2404.936571 8372.245433 0 
2357.91606 8419.031334 2404.779226 8372.203063 0 
2359.079281 8421.116404 2405.08412 8372.162624 0 
2360.90209 8423.054025 2404.904147 8372.18037 0 
2362.141424 8424.975465 2405.11668 8371.872753 0 
2362.769158 8426.969112 2405.176749 8371.97955 0 
2363.79265 8429.105727 2404.832147 8371.75216 0 
2365.164427 8431.247871 2404.797387 8372.216751 0 
2365.783646 8432.983959 2405.212184 8371.949706 0 
2380.765293 8413.24141 2404.902769 8372.094574 2 
2383.107815 8413.236889 2405.007198 8371.759905 2 
2385.040914 8412.161346 2405.190275 8371.932338 0 
2386.886811 8410.056955 2405.055091 8371.905968 0 
2388.776067 8408.981841 2405.135519 8371.818717 0 
2390.837568 8408.217665 2404.820877 8371.751994 0 
2392.215537 8407.868265 2405.218746 8372.249183 0 
2393.102224 8407.18093 2404.948888 8372.117516 0 
2396.172341 8406.101658 2404.962091 8372.030155 0 
2397.088546 8405.219289 2405.040061 8371.87946 0 
2399.130635 8403.980336 2405.061799 8371.767445 0 
2399.78729 8403.86689 2404.923414 8371.813357 0 
2401.098731 8402.808932 2404.882074 8372.186298 0 
2401.776598 8402.952951 2405.188293 8372.242134 0 
2403.071216 8402.157038 2405.241317 8371.923439 0 
2404.087969 8401.940205 2404.790956 8372.010309 0 
2404.791863 8401.003046 2404.790465 8372.13041 0 
2406.972335 8400.080525 2404.75987 8371.85297 0 
2407.810861 8400.071668 2404.870415 8371.848151 0 
2409.188558 8399.043829 2404.911508 8372.037289 2 
2409.102761 8399.043581 2404.973588 8372.129359 2 
2410.246532 8398.91188 2405.121494 8372.067748 2 
2410.818919 8399.112811 2405.241187 8372.156888 2 
2413.803016 8405.782143 2404.917197 8371.844879 0 
2417.035189 8411.957661 2405.225289 8371.757525 0 
2420.788186 8418.235159 2404.860495 8371.849047 2 
2422.056827 8417.98091 2404.947198 8371.995386 2 
2499.774739 8592.108706 2404.782675 8372.127501 0 
2500.902287 8576.006263 2405.00686 8371.89882 0 
2501.168143 8561.878353 2405.216568 8372.237062 0 
2502.241164 8549.207755 2405.14395 8371.79418 0 
2503.239898 8537.811146 2404.88906 8372.025087 0 
2503.018807 8526.864348 2405.032612 8372.056994 0 
2508.849507 8526.143106 2405.156041 8372.156334 0 
2516.874016 8526.853239 2404.90172 8371.898755 0 
2519.211945 8518.934395 2404.776256 8371.864232 0 
2520.190658 8511.033116 2405.013052 8372.108801 0 
2527.161469 8511.97962 2405.095863 8372.152633 0 
2533.937374 8510.989813 2405.196814 8371.927272 2 
2550.050959 8516.835873 2405.202359 8371.819766 0 
2549.950222 8508.984971 2405.12676 8372.049729 0 
2550.878077 8502.032801 2404.956063 8372.002093 2 
2550.13604 8492.107783 2405.150849 8372.097986 1 
2569.792178 8500.177104 2405.212218 8372.232836 1 
2512.96022 8450.97527 2405.091637 8371.871689 0 
2509.204889 8442.9375 2404.774323 8371.892264 0 
2506.177313 8437.221136 2405.069536 8371.978271 0 
2507.807009 8434.021895 2405.048037 8372.007231 2 
2511.756866 8431.924797 2404.80696 8371.884943 0 
2515.207599 8429.013023 2405.137036 8372.093639 2 
2576.870806 8453.037884 2404.941625 8371.912985 0 
2573.964989 8445.903843 2404.895821 8372.175209 0 
2571.129112 8438.237458 2404.796899 8372.084002 0 
2566.924958 8430.821221 2405.226265 8371.85227 0 
2563.792358 8424.045801 2405.080542 8371.849367 0 
2561.817696 8417.878579 2405.106598 8371.824562 0 
2559.053377 8412.163558 2404.959505 8372.010975 0 
2557.926581 8406.84654 2404.854614 8372.047387 2 
2566.134425 8403.046239 2405.210372 8371.849414 0 
2542.200082 8389.856193 2404.774623 8372.079194 0 
2539.843651 8384.821521 2404.913196 8372.018609 0 
2537.892742 8380.889461 2405.120879 8371.9351 0 
2536.185263 8376.951421 2405.034467 8371.752959 0 
2534.08 8371.891065 2404.827521 8371.883377 0 
2531.804623 8368.037025 2405.144352 8371.981204 0 
2531.133566 8365.248967 2404.778591 8372.01799 0 
2529.045206 8361.238963 2405.117404 8371.995288 0 
2526.845156 8357.142027 2404.824481 8371.938806 0 
2525.213548 8352.987677 2405.207415 8371.856291 0 
2503.127138 8354.078295 2405.041391 8372.062401 0 
2500.779716 8350.825858 2405.06536 8372.109716 0 
2498.966923 8348.142881 2405.243093 8372.021545 0 
2497.929906 8345.137445 2404.752749 8371.813472 0 
2497.136412 8342.78134 2405.081462 8371.931618 0 
2495.770303 8339.948866 2405.176905 8371.865458 0 
2493.840893 8336.751387 2405.054265 8371.804441 0 
2492.989064 8334.01168 2404.910732 8371.866202 0 
2491.839975 8332.202122 2405.178603 8371.86969 0 
2490.77798 8328.993963 2405.229406 8371.994902 0 
2488.886844 8326.222499 2404.766448 8372.06675 2 
2537.109944 8293.769197 2405.130221 8371.996356 0 
2534.800537 8288.961683 2405.177974 8371.82084 0 
2533.160549 8285.10488 2404.936298 8371.751442 0 
2531.106266 8281.240563 2404.805883 8371.845331 0 
2529.002243 8275.966615 2404.961533 8372.092217 0 
2526.918737 8271.890136 2405.211908 8371.946717 0 
2525.134099 8267.191314 2405.19162 8371.770943 2 
2546.163813 8239.208068 2405.087692 8372.023757 0 
2543.227264 8233.967913 2404.770113 8371.777801 2 
2575.179596 8191.198088 2404.848641 8372.090146 0 
2561.052967 8196.034939 2405.091588 8371.909234 2 
2554.025502 8192.147472 2405.004564 8371.777744 0 
2539.864087 8197.216097 2405.119962 8372.032824 0 
2530.856233 8198.08187 2405.229542 8372.240332 0 
2517.023184 8207.171161 2404.761275 8371.936997 0 
2497.129229 8227.098967 2405.210754 8372.106493 2 
2486.81688 8232.230867 2405.134294 8372.246477 2 
2483.178955 8229.232935 2405.086623 8371.981922 0 
2477.017874 8228.928211 2405.141156 8371.793376 0 
2461.825682 8248.89572 2404.82112 8371.939769 0 
2456.861817 8251.191082 2405.222594 8371.968051 0 
2447.022952 8255.202135 2404.958383 8371.796135 0 
2445.123296 8249.969658 2404.983132 8372.002525 0 
2439.818625 8248.943886 2404.859018 8371.885505 0 
2434.924753 8252.243313 2404.881982 8371.853708 0 
2431.226248 8254.218605 2405.08563 8371.994122 0 
2426.896816 8255.976786 2405.037498 8371.972498 0 
2423.122507 8258.108618 2405.162267 8372.234324 0 
2419.0497 8260.134861 2404.952375 8371.822652 0 
2415.086996 8261.160758 2404.868787 8371.960292 0 
2409.880415 8283.101919 2405.212818 8371.94904 2 
2406.795805 8284.821836 2405.084546 8371.970558 0 
2404.815149 8286.216528 2405.074267 8371.791397 0 
2402.185132 8287.909897 2405.03552 8371.831948 0 
2399.136684 8288.823018 2405.054446 8372.00919 0 
2397.181636 8289.966713 2404.993514 8371.981337 0 
2393.851574 8292.195889 2405.053989 8372.18857 0 
2392.106647 8293.172776 2404.898863 8372.237062 0 
2390.024696 8293.861681 2404.936102 8372.070501 0 
2386.933517 8295.770648 2404.791059 8371.998666 0 
2385.237176 8297.115326 2405.040063 8372.172308 0 
2382.775223 8297.825583 2404.754256 8372.161907 0 
2380.898601 8299.058702 2404.921097 8371.830237 0 
2378.775416 8300.164611 2405.061574 8371.87699 0 
2376.110501 8301.865563 2404.815561 8371.967147 2 
2374.788339 8302.964424 2404.954209 8372.063035 2 
2366.076104 8289.140312 2404.883536 8371.759621 0 
2361.16096 8285.924595 2405.008287 8372.148136 0 
2357.789921 8286.798351 2405.070444 8371.815144 0 
2354.873934 8289.0747 2405.227051 8372.022535 2 
2352.883403 8289.898148 2405.102772 8371.908819 2 
2329.81276 8262.914346 2405.035809 8372.17326 2 
2334.029909 8276.10137 2404.890408 8372.068248 0 
2338.815794 8289.094617 2404.881283 8372.141898 0 
2342.984929 8299.014818 2405.151519 8371.895888 0 
2346.189414 8306.909806 2404.794024 8372.229335 0 
2348.958157 8314.114468 2404.794479 8372.082091 2 
2347.939168 8314.771531 2404.854625 8372.07257 2 
2344.919679 8317.207398 2405.231389 8371.982439 0 
2341.871744 8318.017198 2404.905699 8372.151653 0 
2346.868568 8325.046107 2404.969901 8371.934361 2 
2347.890724 8329.101184 2404.826259 8372.125653 0 
2349.866003 8333.227778 2404.771541 8371.805416 0 
2350.887584 8335.815565 2404.784751 8372.095741 0 
2352.180033 8338.82923 2404.927832 8371.8692 0 
2355.850761 8344.032457 2405.191771 8372.02044 2 
2355.989855 8345.17316 2404.752878 8372.111599 2 
2353.940357 8345.908578 2405.013252 8372.058925 0 
2352.204685 8347.233153 2405.243286 8371.845408 0 
2349.084338 8347.819545 2405.221061 8372.20034 0 
2346.797323 8349.242602 2404.755756 8371.934908 0 
2343.808167 8349.790507 2404.780649 8372.2382 0 
2339.869738 8351.958481 2404.8574 8371.970498 0 
2337.240938 8352.799171 2405.240938 8371.980793 0 
2335.222331 8354.243816 2404.842392 8371.912688 0 
2329.902394 8356.105644 2405.221613 8371.857079 0 
2327.088798 8357.214899 2404.952487 8371.923135 0 
1571.784444 8238.923548 2404.873476 8371.831768 2 
1576.91615 8266.879232 2405.016675 8371.974317 0 
1583.919739 8294.047324 2404.962517 8372.039477 0 
1755.755805 8331.069917 2404.759975 8372.246743 0 
1757.119088 8350.750913 2404.977536 8372.091418 0 
2429.24473 5146.069929 2520.754106 5144.897124 0 
2429.925573 5148.225719 2521.004203 5144.764371 0 
2431.190619 5151.20669 2520.937506 5145.225063 0 
2432.880238 5154.060982 2520.80683 5145.046388 0 
2436.190214 5156.073506 2520.770705 5144.859954 2 
2432.87083 5158.983221 2521.149431 5144.876635 0 
2422.803138 5164.159406 2520.873378 5145.172226 0 
2411.160319 5170.100915 2521.013644 5145.155049 0 
2400.920843 5176.01775 2520.802173 5145.096416 2 
2359.993469 5193.056376 2521.110787 5144.934088 0 
2364.013066 5196.798293 2520.909151 5145.143303 2 
1924.109276 5360.965981 2520.939691 5145.04949 1 
1911.789487 5386.960396 2521.159443 5144.910317 1 
2209.193617 5281.058874 2521.036952 5145.246755 2 
2215.96828 5290.16033 2521.168981 5144.878599 2 
2225.011245 5295.932625 2520.783648 5145.182088 0 
2130.200375 5360.835821 2521.028504 5144.943844 0 
2229.142197 5318.889291 2521.127932 5144.905263 0 
2234.937585 5326.787083 2520.798566 5144.79686 2 
1850.003065 5602.988257 2521.09635 5145.042552 0 
1575.198653 5834.005793 2521.202869 5145.142271 0 
2251.814667 5354.98982 2521.139026 5145.032947 2 
2342.90015 5292.058007 2521.161546 5145.161395 1 
2351.240632 5295.195194 2521.093483 5145.191007 1 
2363.781016 5291.871987 2520.884852 5145.173213 1 
2372.011278 5293.762784 2520.828476 5145.198863 1 
2371.799868 5303.877042 2521.245724 5145.052932 0 
2406.1153 5276.092074 2520.845484 5145.063953 0 
2418.847867 5268.798353 2520.956224 5144.912534 0 
2425.038173 5269.84525 2521.195481 5145.188324 0 
2429.153258 5271.107027 2521.099719 5145.14389 2 
2438.052222 5267.943201 2521.084897 5145.083237 0 
2442.065188 5270.219749 2521.006451 5144.826467 0 
2451.232533 5263.084927 2520.77533 5144.782401 2 
2458.211969 5259.771054 2521.085334 5145.077269 0 
2465.113128 5256.180818 2520.891222 5145.210994 0 
2473.229171 5248.097446 2520.873528 5145.017344 0 
2477.192696 5245.819009 2520.955668 5145.095954 0 
2482.176036 5242.805386 2520.989844 5144.978258 2 
2484.998587 5245.824741 2520.811495 5144.813776 2 
2487.794491 5247.067946 2520.890243 5144.777024 0 
2491.902873 5244.915573 2520.809425 5144.864842 0 
2495.936627 5242.144758 2521.19211 5144.799754 2 
2498.075576 5243.833332 2520.760749 5145.054747 2 
2501.180778 5249.884277 2520.822091 5145.123474 0 
2502.953287 5253.027759 2520.969428 5144.879323 0 
2506.083145 5259.209272 2521.107581 5144.831732 0 
2508.784014 5264.169076 2520.895508 5144.828504 0 
2503.987022 5415.035751 2520.855528 5145.139895 0 
2517.201324 5244.914953 2520.754737 5144.887951 2 
2520.809711 5243.196847 2520.937705 5145.135288 0 
2523.78018 5241.948454 2520.940035 5145.210958 0 
2525.082731 5221.012126 2521.084432 5144.786018 2 
2527.789884 5219.803861 2520.915341 5145.123029 0 
2529.763133 5218.772922 2521.204761 5144.797147 0 
2532.191998 5217.850269 2520.875651 5144.92902 0 
2534.13602 5216.981179 2520.818915 5145.087344 0 
2536.146132 5215.823652 2521.225294 5145.205843 0 
2537.7705 5214.913 2521.091131 5144.800679 0 
2540.111454 5213.781165 2520.761637 5144.944186 0 
2542.043291 5213.09607 2520.980204 5145.083175 0 
2544.14993 5211.145544 2520.956204 5145.163063 0 
2546.168466 5209.910965 2521.21021 5145.110464 0 
2547.011234 5207.835861 2520.789484 5144.897253 2 
2560.06704 5229.8584 2521.234597 5144.963172 0 
2733.932052 5505.209891 2520.919015 5144.952552 0 
2719.872891 5458.760146 2521.003231 5145.234345 0 
2571.791311 5220.014869 2520.928531 5145.084602 0 
2562.860938 5203.158735 2520.917777 5144.760869 0 
2562.054279 5198.123981 2521.173932 5144.972745 2 
2563.784946 5198.134143 2520.833209 5145.04618 2 
2566.220003 5196.872694 2521.193433 5145.037043 0 
2566.981093 5196.17803 2520.750215 5145.163145 0 
2570.137921 5194.919229 2520.865697 5144.760813 0 
2571.929375 5194.118928 2521.245158 5144.970686 0 
2573.883797 5192.923689 2520.805288 5144.994735 0 
2575.832423 5191.973066 2521.005604 5145.136702 0 
2578.847047 5189.929537 2520.859448 5144.881994 0 
2579.813679 5188.942657 2521.178174 5144.783683 0 
2582.065351 5188.121607 2521.070726 5144.796444 0 
2585.049637 5187.070941 2521.20959 5144.937558 0 
2588.24017 5184.825287 2520.948371 5144.919545 0 
2590.194215 5183.943529 2521.140231 5144.828012 0 
2593.117218 5183.19552 2521.072748 5145.199641 0 
2594.918585 5180.828352 2521.086344 5145.015633 0 
2599.007889 5179.195791 2521.147626 5145.071568 0 
2600.888448 5178.0758 2521.105251 5145.203799 0 
2603.947407 5174.925977 2520.750243 5145.247044 2 
2614.246918 5176.209832 2520.934602 5145.237088 0 
2611.785119 5172.132973 2520.906633 5145.229334 0 
2611.826502 5168.796865 2520.807346 5145.19372 2 
2617.242384 5167.130094 2521.143361 5144.91097 0 
2621.208446 5164.979704 2521.176603 5144.966335 0 
2626.925495 5162.074229 2520.787903 5145.063943 0 
2630.900029 5160.143154 2521.017742 5145.097435 0 
2636.819131 5157.017985 2521.094479 5144.816049 0 
2643.977817 5152.779081 2520.803137 5145.012936 2 
2697.162054 5150.95977 2520.99227 5145.238556 0 
2708.006635 5145.049616 2521.182275 5144.999019 0 
2718.92971 5139.075636 2521.159989 5144.888156 2 
2726.80534 5133.086591 2521.104491 5144.980836 0 
2722.91082 5126.142393 2520.794779 5145.060849 0 
2729.035547 5119.062521 2520.908284 5145.104678 0 
2743.830506 5109.752763 2521.170727 5145.058323 0 
2756.781844 5101.223864 2520.821259 5145.193898 2 
2791.933634 5085.063529 2521.182454 5145.190269 2 
2825.863145 5067.114729 2520.939288 5145.042855 2 
2906.940365 5019.849276 2521.181011 5144.995706 0 
2790.185868 5049.035501 2521.226542 5144.846688 0 
2770.927895 5045.771321 2521.157537 5145.213442 0 
2767.083842 5038.815821 2521.068121 5145.164348 0 
2762.818584 5031.988848 2520.97267 5144.850428 2 
2759.962712 5023.043929 2520.794326 5145.146346 0 
2754.857457 5017.22678 2521.086615 5144.970602 0 
2750.091509 5009.775902 2520.763457 5144.781874 2 
2661.875179 5004.194468 2521.02758 5144.811047 2 
2591.979969 5069.004122 2520.907735 5145.157864 0 
2583.025442 5073.815271 2521.121306 5144.859284 2 
2579.881092 5072.939426 2520.773631 5144.949676 2 
2576.178274 5072.996302 2521.050104 5144.890986 0 
2569.790231 5077.09443 2520.787332 5144.897688 0 
2565.07121 5080.123947 2521.11829 5144.912719 0 
2560.149849 5083.131747 2520.944593 5144.775028 2 
2558.076215 5083.222173 2520.836075 5144.806184 0 
2556.976295 5079.993809 2521.214047 5144.751737 0 
2550.059081 5087.085353 2520.861021 5145.190173 0 
2546.774779 5087.884652 2520.889849 5145.203053 0 
2544.130954 5090.189953 2520.844039 5145.171184 0 
2542.034383 5090.881371 2520.818872 5144.855593 0 
2539.755318 5092.187163 2521.018311 5145.155167 0 
2537.06891 5093.212904 2521.180195 5144.895125 0 
2535.185077 5093.76627 2520.951309 5144.911372 0 
2531.01008 5103.915356 2520.913109 5144.81916 2 
2528.750709 5105.024129 2520.759333 5144.775489 0 
2528.158782 5104.899182 2521.228542 5145.039736 0 
2526.839135 5105.822581 2520.96092 5145.123518 0 
2524.953952 5107.029793 2521.22911 5144.95927 0 
2523.966955 5106.997421 2520.864437 5144.785865 0 
2522.960326 5107.794632 2520.93099 5144.895403 0 
2521.810902 5108.132299 2521.056775 5145.070982 0 
2520.797656 5109.219883 2521.140142 5144.798365 0 
2518.994013 5110.149475 2520.823854 5144.902795 0 
2517.798657 5109.802396 2521.19253 5144.887792 0 
2516.874977 5110.90345 2520.76131 5145.078929 0 
2516.183243 5112.24042 2520.788198 5144.900198 0 
2514.987842 5111.902635 2520.936064 5145.198167 0 
2513.947267 5113.117054 2520.84357 5145.00817 0 
2512.999353 5113.150345 2520.829151 5145.047009 2 
2512.120228 5114.219294 2521.095374 5144.864241 0 
2510.118769 5112.169228 2521.017035 5145.167426 0 
2507.221624 5105.959566 2520.805218 5144.8466 0 
2502.113016 5096.816528 2521.175529 5145.046259 0 
2473.806948 5086.213727 2521.196457 5145.04479 2 
2477.866362 5094.882521 2520.992957 5145.06363 0 
2482.249575 5102.086527 2520.8218 5144.998928 0 
2484.986871 5107.900951 2520.795937 5144.857099 0 
2487.870245 5113.141311 2520.97134 5145.239013 0 
2490.060539 5117.238376 2521.15644 5145.032162 0 
2492.947941 5122.211658 2521.128763 5144.810957 2 
2492.778186 5123.054292 2521.107216 5144.835134 2 
2493.018019 5124.053674 2521.129923 5145.134381 2 
2492.186194 5123.87288 2520.948011 5145.185769 2 
2491.209407 5125.019811 2520.934697 5144.946278 0 
2490.170762 5125.980633 2521.053377 5144.791007 0 
2487.871944 5126.774718 2520.78002 5145.182483 0 
2485.763093 5128.18646 2520.964645 5144.961034 0 
2485.148117 5128.843408 2521.021991 5145.176303 2 
2485.1477 5129.879208 2520.761437 5144.915718 2 
2485.182881 5132.14136 2520.8001 5145.119075 2 
2484.76424 5132.998111 2521.054844 5145.223647 2 
2484.767922 5134.239541 2520.919925 5145.188684 2 
2483.970174 5135.223302 2521.22969 5145.092118 0 
2482.24802 5134.75971 2521.024601 5144.761113 0 
2481.19617 5136.239247 2520.972147 5145.094288 0 
2478.832655 5137.244138 2521.020591 5145.230354 0 
2477.873346 5139.032028 2520.896073 5144.806227 2 
2465.923388 5137.946173 2521.175303 5144.937628 0 
2463.194284 5139.980147 2520.911275 5145.212205 0 
2458.969688 5142.0812 2521.150889 5145.189862 0 
2457.054503 5143.130579 2521.031981 5145.052522 0 
1088.14029 9633.806582 1099.063635 9633.08646 2 
1087.795829 9633.785782 1098.930748 9632.878483 2 
1087.779921 9634.201338 1098.858838 9632.903267 2 
1087.983366 9634.004911 1098.959494 9633.156754 2 
1088.201083 9634.884796 1098.844382 9633.145367 0 
1088.114943 9636.005657 1099.107572 9632.834631 0 
1087.836858 9637.008461 1098.774494 9633.14136 0 
1088.889041 9638.056474 1098.943883 9632.77933 0 
1089.113056 9638.757518 1099.115791 9633.158885 0 
1088.793301 9639.796538 1098.787368 9632.823221 0 
1089.247877 9640.896206 1098.976488 9632.981243 0 
1090.151116 9642.185982 1098.887997 9633.1022 0 
1089.820779 9642.982379 1098.997566 9633.185722 0 
1090.238036 9643.855139 1098.770353 9632.824894 0 
1090.1136 9644.794847 1099.216254 9632.75264 0 
1091.101321 9645.910137 1098.781971 9632.964378 0 
1090.917655 9647.147761 1098.873263 9632.960956 0 
1091.194299 9647.910631 1099.034177 9633.192176 0 
1092.056837 9649.760666 1098.923419 9632.957953 0 
1092.196648 9652.061415 1098.810153 9632.767427 0 
1092.793794 9654.057719 1099.203149 9632.781831 0 
1093.162858 9656.223502 1098.856725 9633.026457 0 
1093.768349 9657.822979 1099.029097 9633.119671 0 
1093.983117 9659.061068 1098.834048 9633.150772 0 
1094.958829 9661.957311 1098.861728 9632.903129 0 
1096.117942 9663.145906 1098.845305 9632.924778 2 
1097.156571 9663.018723 1099.132731 9633.103219 2 
1097.830138 9663.192884 1099.120646 9632.873933 2 
1099.000603 9665.073795 1098.905764 9632.91346 0 
1100.047297 9664.012489 1099.189918 9633.065646 0 
1101.085468 9663.969015 1098.935317 9632.818585 0 
1101.780083 9664.019366 1099.219357 9632.988912 0 
1103.226676 9663.831085 1099.142041 9633.094618 0 
1104.22699 9663.237346 1098.769396 9633.133562 0 
1105.006069 9663.152127 1098.986781 9633.086207 0 
1106.095011 9662.857427 1099.21014 9632.845614 0 
1107.181221 9662.865903 1099.009074 9632.978518 0 
1108.128392 9661.948992 1098.794164 9632.96386 2 
1109.168007 9661.979481 1099.032445 9633.19809 2 
1110.248847 9662.001801 1098.937002 9633.225523 2 
1125.082886 9695.829043 1099.070142 9633.059877 2 
1260.816389 9951.089538 1098.943438 9633.072458 0 
1219.991665 9854.180219 1098.908665 9632.836676 1 
1228.787646 9854.868805 1098.93229 9633.218867 1 
1240.984708 9857.191365 1098.947385 9632.8631 1 
1252.890357 9859.991549 1099.07696 9632.808364 1 
1240.221031 9826.859404 1098.756454 9633.219878 0 
1235.111206 9808.943456 1099.195401 9632.944092 0 
1231.0225 9793.015543 1098.753969 9633.088889 0 
1230.855081 9783.947407 1098.911346 9633.096746 2 
1238.877626 9784.070011 1099.183422 9632.915272 0 
1247.188816 9780.865713 1098.884139 9632.923524 0 
1242.807077 9769.081524 1099.036624 9632.947434 0 
1239.823074 9757.863583 1099.005798 9632.794105 0 
1222.972988 9736.012251 1098.763983 9632.834193 0 
1220.205708 9727.209384 1099.028285 9632.978208 0 
1217.974927 9720.032254 1098.817096 9633.080007 0 
1216.229661 9713.978443 1098.926753 9632.857288 0 
1220.798454 9710.860175 1099.02256 9633.23727 0 
1205.975887 9697.156699 1098.910794 9633.032965 0 
1203.988224 9691.197417 1099.230399 9633.061298 0 
1202.811001 9685.986196 1099.105403 9633.033988 0 
1202.248448 9682.119385 1099.118181 9633.204156 0 
1201.078769 9677.896467 1098.932363 9632.803696 0 
1199.178721 9672.999459 1099.133703 9633.158382 2 
1199.227902 9668.810455 1098.76567 9632.776356 0 
1198.92063 9666.03823 1098.763626 9633.146518 0 
1197.944929 9661.924419 1098.929482 9633.183153 0 
1195.871836 9657.909881 1098.994451 9632.932837 0 
1196.146077 9654.849854 1099.216825 9633.144525 0 
1195.219239 9652.085007 1099.098681 9633.048008 0 
1194.231473 9648.781044 1099.101704 9633.160194 0 
1146.030503 9638.985406 1099.068576 9633.008405 2 
1145.045862 9638.084246 1099.034761 9633.216492 0 
1144.872476 9636.048387 1099.11301 9633.067406 0 
1145.222806 9634.792492 1099.000559 9632.844642 0 
1143.952373 9633.24501 1099.027479 9632.848451 0 
1143.844864 9631.994304 1099.242976 9632.814103 0 
1143.829311 9631.091656 1099.112111 9632.810784 0 
1143.1227 9628.963814 1099.220978 9632.903203 0 
1143.199221 9628.039555 1099.161608 9632.995083 0 
1141.873801 9626.946369 1098.961575 9632.996277 0 
1143.244755 9624.824585 1098.813683 9633.217561 0 
1142.867077 9624.064241 1098.812204 9633.069451 0 
1151.059251 9620.089683 1099.167902 9633.154115 2 
1182.833987 9609.160877 1099.218217 9632.913298 0 
1182.002534 9606.080328 1098.974082 9632.875234 0 
1181.794143 9603.945061 1099.028437 9633.243363 0 
1181.234615 9600.940045 1098.988446 9632.858416 0 
1180.136414 9598.200021 1099.104693 9633.131169 0 
1178.774606 9595.168376 1099.09873 9632.891684 0 
1178.982618 9593.160934 1099.211135 9632.791869 0 
1169.000617 9594.129036 1099.195984 9633.084604 0 
1164.039914 9594.164201 1099.247902 9632.792447 2 
1162.994529 9592.971984 1098.917681 9633.038672 0 
1162.167045 9590.196118 1099.032035 9633.15166 0 
1161.886163 9587.770481 1098.760076 9632.772577 0 
1179.220503 9571.11477 1099.153746 9633.245109 0 
1178.033146 9568.002476 1098.886793 9632.765763 0 
1176.91341 9564.847927 1098.807632 9633.164027 0 
1187.226964 9549.753616 1098.998631 9633.016877 0 
1180.167817 9551.996533 1099.059325 9632.912346 2 
1173.218517 9554.227006 1099.201018 9633.135562 0 
1166.173124 9555.983054 1099.037222 9632.809287 0 
1161.003535 9558.047298 1098.831864 9632.974038 0 
1155.912068 9559.23561 1098.969147 9633.195213 0 
1151.988086 9560.10594 1099.210977 9633.151496 0 
1147.203867 9560.768609 1099.065523 9633.180831 0 
1142.772225 9562.814154 1098.947708 9633.190042 0 
1139.060687 9563.757033 1098.852389 9633.029204 0 
1138.234039 9562.803407 1098.914765 9633.157163 2 
1136.036461 9560.201987 1099.21645 9632.789996 0 
1134.999285 9555.798314 1099.014033 9633.161353 0 
1133.783924 9553.23318 1099.106566 9633.02201 0 
1133.08912 9548.067543 1098.923506 9633.042987 0 
1131.086152 9542.239029 1098.973817 9633.108377 0 
1129.803183 9538.171525 1099.048419 9633.11387 0 
1128.178557 9531.150808 1098.893074 9633.162596 0 
1127.204215 9507.05784 1099.069759 9632.990676 0 
1139.009827 9425.036209 1099.030671 9632.759112 0 
1133.084524 9361.794704 1099.170464 9633.118448 0 
1123.777884 9363.02703 1098.890457 9633.117004 0 
1115.844573 9364.063963 1098.909991 9633.180725 0 
1108.052993 9354.133808 1099.039102 9633.106176 0 
1099.055333 9325.837521 1098.970046 9632.98389 0 
1079.238329 9326.113121 1098.896486 9633.192544 0 
1054.92096 9172.216245 1098.933219 9633.180787 0 
1048.002455 9234.213891 1099.189899 9632.836978 0 
1049.758595 9327.110363 1099.205426 9632.786479 2 
1039.887394 9324.845883 1099.153483 9632.981967 0 
1017.159846 9265.813474 1098.912692 9632.962839 0 
1071.197282 9526.201794 1098.819015 9633.002614 0 
1067.789314 9527.039061 1099.236504 9632.777643 0 
1080.902182 9580.882991 1099.220187 9633.073142 2 
1079.849236 9581.903407 1099.00393 9633.10169 2 
1078.867297 9582.943829 1099.188669 9632.875892 0 
1076.804192 9584.144094 1098.912372 9632.941586 0 
1076.239978 9583.815855 1099.173553 9633.149824 0 
1073.879329 9585.836245 1098.862663 9632.826611 2 
1072.788038 9585.931678 1099.079225 9632.827353 2 
1074.220739 9593.065729 1098.854996 9632.872921 0 
1076.19872 9598.825183 1099.196063 9632.797956 0 
1076.97859 9602.949993 1099.149646 9633.095887 0 
1077.143822 9605.088315 1099.221779 9633.198014 0 
1077.982409 9607.884151 1098.8896 9632.972387 0 
1078.950006 9609.813153 1098.872211 9633.079335 0 
1078.899398 9611.984874 1099.155945 9632.937436 0 
1080.166552 9613.98517 1099.014788 9633.137291 0 
1079.8009 9615.119785 1098.760212 9633.24962 0 
1080.194968 9617.206276 1098.797576 9632.923558 0 
1080.906269 9618.197222 1098.769445 9632.800091 0 
1083.035537 9621.241224 1099.248105 9632.767946 2 
1082.875375 9621.887705 1098.990333 9633.075381 2 
1082.950857 9623.112544 1098.904716 9633.100255 2 
1082.847418 9622.810661 1098.787691 9632.76397 2 
1083.045831 9623.052479 1099.151261 9633.09673 2 
1081.922264 9623.161474 1099.09635 9632.867232 2 
1080.11775 9624.143925 1099.040789 9632.774018 0 
1079.091147 9624.060234 1098.824109 9632.876684 0 
1078.051459 9623.822214 1098.894631 9633.176834 0 
1076.959918 9625.134964 1099.002215 9633.160776 0 
1075.997508 9625.156931 1099.011031 9633.094926 0 
1074.217591 9625.048722 1099.108896 9633.013422 0 
1072.851201 9626.010158 1098.860152 9633.023465 0 
1070.921631 9626.206502 1099.140697 9632.789381 0 
1069.100428 9626.931486 1098.813399 9632.941575 0 
1088.24172 9631.887508 1099.06826 9633.043179 2 
1087.959722 9632.21289 1098.970013 9633.169641 2 
1088.097854 9632.222228 1099.080417 9632.845362 2 
1088.129159 9632.841448 1099.190289 9633.09675 2 
1088.14017 9633.049185 1098.860172 9633.241371 2 
1087.809342 9632.970324 1099.014836 9632.980974 2 
3425.926827 8485.905532 3772.020354 8484.777254 0 
3420.087018 8497.083753 3771.96883 8485.078739 0 
3399.221262 8508.787089 3771.871918 8484.930984 0 
2847.249979 8574.091931 3771.850625 8485.097834 0 
3150.064159 8565.181041 3772.193196 8484.943317 2 
3158.772489 8584.133485 3771.790067 8485.162659 0 
3162.93267 8601.900239 3772.154029 8484.992012 0 
3072.120563 8642.918865 3772.222986 8484.79739 0 
3423.074397 8575.99334 3771.824644 8484.911416 1 
3435.827093 8584.043473 3772.240154 8484.798355 1 
3437.080563 8594.862072 3771.979339 8485.080542 1 
3238.204002 8678.079964 3771.928376 8485.018161 0 
3038.011005 8776.871572 3772.211478 8485.033494 0 
2985.755057 8825.751545 3771.946153 8484.937726 0 
3253.901784 8729.850182 3772.179738 8484.772347 0 
2981.019047 8890.152724 3771.819737 8484.843445 0 
3045.896063 8885.894381 3772.00486 8484.973157 2 
3074.187855 8899.995014 3772.021511 8485.018417 0 
3098.107086 8913.75085 3771.848959 8485.061089 0 
3121.080814 8928.027335 3771.82925 8484.841819 0 
3068.148907 8997.790728 3772.125313 8485.153963 1 
3137.792274 8978.821466 3771.84169 8484.944058 0 
3509.921648 8702.771428 3771.966406 8485.190695 2 
3515.174152 8713.036143 3771.78414 8484.820215 0 
3525.180524 8718.039 3772.043372 8485.118378 0 
3532.784015 8723.814883 3771.886795 8485.141101 0 
3538.815733 8733.985755 3771.95219 8485.146547 0 
3543.76309 8744.03144 3772.238366 8485.161996 0 
3544.072168 8761.113679 3772.06596 8485.114442 0 
3550.185145 8772.15765 3771.8085 8484.856793 0 
3602.179077 8720.024906 3771.797488 8485.103229 0 
3617.811049 8712.831628 3772.173444 8485.241573 0 
3630.120629 8707.966815 3772.109951 8485.154643 2 
3634.031698 8718.246746 3772.045744 8485.097432 0 
3638.982501 8728.247934 3771.993979 8484.995591 0 
3643.029374 8736.982345 3771.907587 8484.851542 0 
3621.846024 8804.223547 3772.215985 8484.781169 0 
3660.131196 8743.774485 3771.887962 8485.060274 0 
3672.049391 8738.93545 3771.913502 8485.11044 0 
3679.017078 8741.836946 3772.102013 8484.887706 0 
3685.053762 8753.961964 3771.79235 8484.83546 2 
3535.95871 9299.088094 3772.182892 8485.191211 0 
3635.086029 9019.926871 3771.936801 8484.865403 0 
3652.159216 9025.094388 3771.966945 8484.75524 0 
3598.067935 9400.93293 3771.786409 8484.949131 0 
3678.957415 9074.924371 3771.759405 8484.756806 0 
3623.109821 9666.922907 3772.117246 8484.876898 2 
3725.009854 8981.969258 3772.014605 8484.813615 0 
3740.181222 8989.056954 3771.899075 8484.889932 0 
3754.895049 9008.831967 3771.831143 8485.231077 0 
3772.008838 9344.017944 3771.84648 8484.918054 0 
3798.862332 9329.063425 3771.923294 8485.180267 0 
3831.246355 9423.959703 3771.879399 8484.95377 0 
3863.134074 9440.888804 3771.960575 8484.993894 0 
3946.061711 9583.827821 3772.120793 8484.821565 2 
3928.047079 9304.885398 3771.88518 8484.978301 0 
3960.192352 9328.034255 3772.118233 8484.837401 0 
3867.116222 8855.199375 3771.818478 8484.87506 1 
3871.967319 8829.914958 3772.043114 8485.079652 1 
3885.228383 8834.216408 3772.009919 8485.224737 1 
3992.926111 9101.139318 3771.928507 8484.810184 0 
4010.778121 9091.139082 3772.054079 8485.089832 0 
4029.216903 9080.924872 3772.161397 8485.013983 0 
4064.060269 9058.796577 3772.242284 8485.002621 2 
4227.080833 9313.110517 3772.090022 8484.947055 0 
3967.059892 8816.158499 3772.072115 8484.777212 0 
3943.823457 8755.865229 3772.106863 8484.80184 0 
3934.831636 8725.866782 3771.776577 8485.007747 0 
3942.7561 8720.955084 3772.067931 8484.784221 0 
3950.844166 8715.87201 3772.124054 8484.81107 0 
3959.046882 8712.035451 3772.075052 8484.857151 0 
3967.082028 8707.067336 3772.109772 8484.912861 2 
3997.927853 8726.949793 3772.109916 8485.237745 0 
4016.858293 8730.93203 3771.764957 8484.93175 0 
4222.047259 8908.12182 3771.98359 8485.128895 0 
4010.238603 8696.010167 3771.886642 8485.244702 2 
4019.215251 8691.204573 3771.778924 8484.809417 0 
4029.826583 8686.152977 3771.870487 8485.123464 0 
4039.938428 8681.195539 3772.230615 8484.770456 0 
4049.012875 8674.090387 3771.933317 8485.190728 2 
4102.79018 8653.793232 3772.178473 8484.898473 2 
4119.975263 8649.19343 3772.080223 8484.772522 0 
4123.065251 8623.813813 3772.151417 8485.053853 2 
4163.073979 8626.788059 3772.048556 8485.03923 0 
4196.242631 8595.077479 3772.098647 8484.819214 2 
4254.980457 8594.219134 3772.192679 8485.168885 0 
4330.164673 8556.173294 3772.189341 8484.927548 2 
4395.013681 8504.872657 3771.868276 8485.053861 0 
4221.91589 8456.796749 3772.202335 8485.141152 0 
4217.240179 8443.032558 3772.163674 8485.05543 2 
4214.096371 8430.065091 3771.859283 8484.92035 2 
4306.103149 8401.157839 3772.20958 8485.095781 0 
4524.985318 8342.058227 3772.164995 8485.215775 2 
4338.027361 8359.107674 3772.13466 8484.942034 1 
4333.030968 8341.074 3772.119581 8484.794649 1 
4498.196658 8275.237857 3772.09851 8484.862548 0 
4595.784606 8218.050845 3771.7537 8484.774785 0 
4185.833403 8336.167374 3772.080215 8485.179773 2 
4177.982465 8324.189498 3771.850123 8484.835614 0 
4172.097337 8311.809704 3772.181395 8484.832655 0 
4169.117931 8299.09639 3771.79843 8484.895292 0 
4160.954064 8287.18309 3772.087326 8485.235032 0 
4144.00709 8265.956907 3771.779681 8484.953748 2 
3964.944764 8363.128191 3772.066295 8484.97937 0 
3960.929035 8357.069995 3772.004155 8485.012438 0 
3957.987369 8349.83437 3771.942211 8485.219834 2 
4135.773868 8203.042335 3771.805448 8485.121205 0 
4129.102038 8190.236843 3772.20386 8484.969969 0 
4123.083233 8175.75229 3772.115262 8484.787297 0 
4297.185379 7991.952588 3771.772329 8484.942469 0 
4076.159495 8161.802009 3772.146217 8484.854259 0 
4068.1802 8148.962513 3772.083629 8484.859235 0 
4059.782508 8135.837784 3772.121673 8485.019877 0 
4052.922154 8123.813884 3771.989712 8484.946022 0 
4020.106219 8067.04516 3771.817226 8484.958257 2 
4101.032003 7887.771086 3772.178227 8484.865236 0 
4038.773376 7961.043489 3771.902533 8485.208755 0 
3987.246076 7986.924862 3771.901224 8485.155572 0 
3866.976871 8242.797441 3771.759831 8484.907071 0 
3857.009954 8248.09346 3772.016306 8485.042462 0 
3849.181244 8246.887979 3771.81234 8484.853398 0 
3839.951864 8249.052051 3772.049419 8484.808083 0 
3830.847211 8254.116645 3772.01634 8485.129214 0 
3822.137731 8258.944567 3772.24445 8485.161107 0 
3816.238056 8255.896983 3772.119862 8485.234132 0 
3810.071845 8245.771086 3772.139704 8484.798716 0 
3826.818527 8046.149534 3771.955787 8485.078481 0 
3812.992994 8053.222093 3771.870943 8484.924238 0 
3783.860072 8291.933283 3772.027636 8485.061936 0 
3772.235334 8297.827055 3772.120018 8484.832545 0 
3766.1937 8301.886358 3772.21176 8485.081431 0 
3760.080926 8305.20621 3771.992538 8485.068981 0 
3754.853193 8307.8624 3772.053114 8485.175038 0 
3750.883485 8318.942817 3772.223755 8484.952012 2 
3745.842352 8321.929542 3771.780494 8485.085346 0 
3740.901634 8324.901437 3771.759584 8485.011706 0 
3736.08472 8328.03722 3771.823642 8485.070054 2 
3730.114275 8322.19366 3772.1526 8485.057976 0 
3718.830019 8302.114359 3771.889407 8485.160944 0 
3534.070569 7751.131945 3771.979926 8485.173763 0 
3458.244345 7610.783039 3772.098801 8484.87783 2 
3428.975856 7619.072556 3772.079842 8485.068208 0 
3286.752097 7364.110336 3771.903554 8484.903732 2 
3382.761773 7658.913139 3772.165438 8485.096493 2 
3546.200359 8041.23908 3771.916548 8485.064634 2 
3538.182741 8058.819148 3771.87261 8484.762759 0 
3111.183507 7367.012017 3772.173704 8485.004076 0 
3210.893962 7600.903629 3771.927839 8484.888307 2 
2981.936668 7465.776641 3772.016137 8485.162525 0 
3029.099197 7584.845979 3771.980733 8485.101294 2 
3238.206315 7879.134288 3771.755026 8485.218089 1 
3703.797426 8414.170464 3772.064582 8485.247786 1 
3692.159544 8406.23113 3772.06242 8485.092285 1 
3707.800277 8426.18503 3772.105044 8485.233785 1 
3712.947047 8433.028748 3771.987861 8485.091009 1 
3692.182377 8420.1657 3772.229316 8484.869045 1 
3693.192341 8424.995453 3771.78157 8485.041538 1 
3696.091432 8431.012303 3771.892832 8485.047748 1 
3706.896591 8440.897857 3772.015836 8484.944017 1 
3693.818321 8435.830418 3771.941803 8485.227866 1 
3683.811548 8433.754222 3772.070151 8484.861826 1 
3321.189252 8236.925195 3771.84561 8484.8863 0 
3324.203943 8257.083471 3772.227309 8485.13632 0 
3345.999172 8285.206625 3771.755365 8484.941513 2 
3328.952078 8293.786935 3772.23305 8484.79351 0 
3311.049238 8302.875882 3772.091258 8485.195829 0 
2705.023739 8099.857094 3771.889846 8485.092061 0 
2662.937512 8124.081648 3772.069926 8484.99906 2 
2685.085871 8167.890077 3772.110886 8485.025123 2 
2688.065272 8206.206497 3772.161422 8485.019215 0 
3155.039968 8347.138731 3771.905534 8484.78914 2 
3171.095356 8369.910899 3771.980652 8484.797434 2 
2858.947834 8426.963703 3771.840944 8485.247072 0 
3419.089585 8474.182202 3772.192901 8484.863324 0 
37.7892956 6287.832746 197.2053844 6199.976808 2 
40.1643943 6293.025311 197.2258683 6200.000265 0 
43.16538771 6299.086755 196.7753877 6199.98066 0 
66.04325116 6290.18681 197.2498743 6199.833219 0 
99.07554147 6270.905409 196.8723589 6199.920898 2 
100.0663079 6275.103011 196.9683319 6199.764142 0 
101.8167141 6279.059276 196.7612143 6200.156299 0 
103.991478 6283.204115 196.7696225 6200.030774 0 
104.7868613 6286.225007 196.7575814 6200.201256 0 
110.0003177 6288.23345 196.9515204 6199.915705 0 
120.0702042 6282.976908 197.146365 6199.863455 2 
120.9137183 6287.146239 196.9466745 6200.23926 0 
121.8016479 6290.069033 196.9101575 6200.117956 0 
123.9220447 6294.128489 197.1320979 6199.988759 0 
125.9377656 6297.143312 196.8950574 6200.179244 0 
128.0974273 6300.91468 196.9600172 6200.134289 0 
129.8896869 6304.967599 197.0855441 6200.140005 0 
131.9510481 6308.787064 196.8057099 6199.771252 0 
134.0139725 6314.202075 196.8847076 6200.177691 0 
138.0983142 6317.081382 197.1669505 6200.149962 2 
142.9004155 6315.827108 197.0179179 6200.07246 0 
148.2055975 6312.900016 196.8112189 6199.893363 2 
149.7933281 6318.956276 196.8226067 6200.140755 0 
152.1209563 6323.032624 197.0250439 6199.760643 0 
154.7502224 6328.860588 197.1506477 6199.951271 0 
157.8976524 6335.206358 196.9725228 6200.161625 0 
161.1584326 6341.10723 197.0893157 6200.006747 0 
163.9386126 6345.006266 196.9067089 6200.089028 2 
169.0833742 6345.174627 196.9114881 6200.038972 0 
173.8246425 6340.972707 197.1823347 6199.867971 2 
182.1789833 6355.754941 196.758726 6200.04994 0 
186.0375652 6364.03377 197.0605828 6200.037788 0 
191.1443578 6373.961231 197.2390581 6199.79201 2 
196.9175882 6651.961581 197.2036351 6199.826021 0 
210.8188114 6652.042951 197.0827676 6200.007424 0 
224.7992169 6655.239476 196.8464519 6200.132591 0 
240.1641032 6660.00794 196.9215628 6200.238746 0 
261.2306471 6711.853898 196.8567164 6200.15963 0 
311.858839 6713.865442 196.9595701 6200.146404 0 
329.1492122 6714.770153 196.9341918 6200.04357 0 
345.9813834 6714.92325 197.0855802 6200.148972 0 
364.1348308 6716.039215 197.2249924 6200.203642 0 
371.8321659 6644.05776 196.9610661 6199.881383 0 
384.0472364 6633.057518 196.763974 6199.96134 0 
394.8154581 6621.935537 196.9500854 6199.796105 0 
414.0394344 6628.056802 197.2057357 6200.148273 0 
433.1722441 6630.915306 197.0446775 6200.071456 0 
451.9354586 6633.228869 196.8650263 6200.166842 0 
1140.902119 7688.200606 197.0658135 6199.78695 0 
991.9898216 7370.040806 197.2405922 6200.071988 2 
689.8485658 6877.951658 197.2033704 6200.145802 0 
657.7591763 6796.217344 196.8571419 6199.824634 0 
579.9028812 6663.057227 196.8707397 6200.192316 0 
440.864029 6476.826475 197.0905889 6199.786273 0 
312.9917811 6323.885266 197.1077295 6200.17724 0 
309.8641358 6314.222756 197.0940816 6200.016255 2 
316.1733622 6311.909895 197.0532051 6199.913184 0 
255.2007009 6252.043797 197.2351714 6199.799267 0 
252.2454556 6246.188542 197.1950689 6199.754632 2 
252.1558862 6243.802211 196.8292664 6199.808767 2 
256.1094381 6242.950006 196.7510829 6200.223467 0 
258.0264815 6242.091672 196.7597403 6199.768263 0 
261.2269382 6241.11747 197.1955023 6199.841074 0 
263.0902255 6240.039584 197.107329 6200.013588 0 
266.199479 6238.910534 197.1767714 6200.15018 0 
269.2043313 6238.161943 197.1994466 6200.199787 2 
377.1004845 6286.144516 197.2044189 6200.006371 0 
386.1967264 6281.783685 197.0651381 6200.056164 0 
420.9836914 6289.066221 197.0296316 6199.760173 0 
416.9078928 6280.039372 196.7784355 6199.884831 2 
426.9068417 6275.223938 196.9759049 6200.247067 0 
445.0135217 6272.833234 197.0106548 6199.963001 0 
457.9937679 6266.937426 196.8631806 6199.948099 2 
474.849369 6262.812627 196.8978862 6200.199854 0 
245.2071428 6209.852305 196.9562242 6200.153869 2 
243.8859903 6207.771362 196.9600337 6200.119682 0 
243.0875833 6205.239665 197.1298546 6200.245476 0 
242.0290372 6203.15829 196.880307 6200.185879 0 
241.1322279 6202.106212 197.1829461 6199.89575 0 
240.1894459 6199.943601 197.1087503 6199.933214 0 
239.1310271 6199.221931 197.1313131 6200.230396 0 
238.7845582 6197.779199 197.1802496 6200.241701 0 
237.8815043 6196.886474 197.1455702 6200.017495 0 
236.9078362 6194.855604 196.8871763 6200.245419 0 
236.8452692 6193.767031 197.2408955 6200.124306 0 
236.175321 6192.871203 197.0601854 6200.057549 0 
236.2274145 6191.993131 197.2032986 6200.16686 0 
235.1867323 6191.062049 196.8500743 6200.067759 0 
234.0339799 6189.231387 197.0481555 6200.068538 0 
233.7605866 6187.978405 197.0602391 6199.892091 0 
233.1148791 6186.955809 197.1595854 6199.772715 0 
233.0614133 6185.796762 196.7681347 6200.156682 0 
231.8137926 6183.75903 197.0309889 6200.239114 0 
230.8802329 6182.841174 197.0466625 6199.857647 0 
231.0843057 6181.999961 196.7745078 6200.021038 0 
229.81201 6180.874582 196.8387974 6200.09599 0 
229.8559694 6180.136953 196.914528 6199.866556 0 
228.8653581 6179.224767 197.0086468 6200.230237 0 
227.9305765 6176.918232 196.7529525 6200.24199 0 
227.9649939 6175.771087 197.1486722 6200.028786 0 
226.7801175 6174.929661 197.0179 6199.91035 0 
227.0208353 6173.814563 197.0179977 6199.855141 0 
226.0645237 6173.042506 197.126179 6200.126534 0 
225.1670876 6172.214976 196.9725236 6199.773057 2 
225.1019294 6171.137052 196.889613 6200.217288 2 
327.1118188 6052.14826 197.1975248 6199.792395 0 
312.816492 6059.200477 196.7843851 6200.031486 0 
259.2215645 6120.183057 196.8102723 6199.751682 1 
255.8627184 6118.078172 196.9120323 6200.133554 1 
288.1427349 6065.18003 197.2386947 6199.957259 0 
285.9725356 6060.114874 196.8337923 6199.889623 0 
283.0798502 6055.056316 196.9126802 6199.93178 0 
279.9433676 6049.052293 196.8990672 6199.805186 0 
276.950553 6042.846592 196.8475817 6200.017045 0 
273.7970692 6036.881967 196.7985308 6199.768634 0 
267.8150241 6033.858803 196.7703156 6199.927742 0 
