ply
format ascii 1.0
element vertex 946
property double x
property double y
property double x_origin
property double y_origin
property int lab
end_header
2580.820402 4289.145658 2441.864404 4396.049326 2 
2624.100922 4245.186098 2441.978185 4395.80314 0 
2573.814815 4279.85727 2441.915205 4395.763836 0 
2571.153333 4274.887669 2442.117142 4395.888127 0 
2591.791966 4245.853552 2441.935515 4396.22947 0 
2571.860231 4256.979736 2442.111156 4396.056818 0 
2559.24371 4263.060789 2441.955813 4395.902405 0 
2557.093573 4257.813522 2441.820823 4396.163974 0 
2554.209179 4251.935227 2441.9633 4396.060101 0 
2550.871325 4247.191486 2442.113241 4395.93614 0 
2547.798755 4240.778446 2441.949977 4396.202088 0 
2543.916116 4234.817118 2441.840215 4395.958082 0 
2583.92067 4156.02573 2441.937551 4396.030902 0 
2532.755466 4228.798707 2441.837719 4396.249176 2 
2525.109496 4233.043532 2441.901581 4395.953068 0 
2516.107054 4236.972404 2441.867042 4396.066233 0 
2510.157631 4237.080343 2441.876335 4395.778956 0 
2507.021828 4231.239576 2441.965096 4396.070583 0 
2503.768022 4225.165073 2442.022672 4395.934138 0 
2500.232191 4217.112887 2442.142219 4395.902861 0 
2514.888616 4141.829771 2442.183763 4395.894082 0 
2505.878478 4146.771482 2441.893258 4396.237973 0 
2498.065014 4145.044839 2441.941042 4395.922068 0 
2491.767243 4134.058084 2442.238301 4396.174874 0 
2484.888427 4120.864636 2442.20383 4396.160255 0 
2477.854212 4106.918926 2441.980839 4395.872234 0 
2452.833999 4274.75351 2442.056371 4395.81619 2 
2449.116397 4276.948591 2441.969051 4395.755014 0 
2445.028362 4278.902814 2441.899096 4396.156839 0 
2441.924296 4281.042354 2442.144813 4396.23931 0 
2437.837193 4282.835854 2441.911378 4395.854436 0 
2435.143939 4283.89968 2441.77931 4395.782365 0 
2431.014315 4286.23314 2442.192621 4396.118527 0 
2427.902067 4287.923459 2442.240761 4395.986065 0 
2424.92697 4290.047132 2442.052255 4395.793367 0 
2422.245723 4290.771307 2441.798381 4396.024084 0 
2418.924121 4292.947476 2441.930924 4396.098417 0 
2415.23983 4294.825736 2442.087727 4395.827023 0 
2412.91159 4296.249105 2441.931458 4395.805529 0 
2408.898785 4297.960769 2441.837894 4396.1631 0 
2406.943909 4298.780515 2442.031627 4396.095976 0 
2403.953974 4300.022388 2441.832041 4396.130944 0 
2400.81952 4302.134296 2442.174311 4395.815243 0 
2398.155603 4303.222692 2442.089327 4395.829724 0 
2394.920168 4304.770251 2442.17814 4395.909998 0 
2391.845987 4306.015868 2441.987021 4396.007577 0 
2389.014973 4308.16848 2442.063106 4396.163758 0 
2385.879248 4309.151 2442.076858 4396.073157 0 
2384.181515 4310.858486 2441.919133 4395.88549 2 
2300.130873 4201.001174 2441.766434 4396.200393 0 
2292.88547 4205.190745 2441.765636 4395.791073 0 
2286.163437 4209.104963 2441.870797 4395.833605 0 
1660.125214 3506.798937 2441.993604 4396.2212 0 
1773.064805 3682.230625 2441.978777 4395.829778 1 
2228.149104 4182.791883 2442.243536 4395.778352 0 
2243.192884 4210.070394 2442.101509 4396.124399 0 
2253.17888 4228.770642 2441.759889 4396.059753 2 
2244.021816 4232.776323 2442.010147 4396.157286 0 
2237.217068 4237.025782 2442.198359 4396.130505 0 
2228.880745 4240.819156 2442.21411 4395.755959 0 
2220.868094 4245.957714 2442.227159 4396.182898 0 
2244.938339 4270.955937 2441.762676 4395.837443 2 
2236.99782 4274.756212 2441.865795 4395.940704 0 
2208.076606 4268.217305 2441.815104 4396.005486 0 
2215.237947 4280.824993 2441.81524 4396.009763 0 
2220.851316 4293.075386 2441.917049 4395.818384 0 
2226.851169 4303.865408 2442.198889 4395.981914 0 
2234.934565 4315.162999 2441.987873 4396.052658 2 
2228.870713 4319.965033 2441.985557 4396.059052 0 
2221.170969 4323.998233 2442.146495 4395.91879 2 
2085.004445 4292.76229 2442.109494 4395.831051 0 
2096.229595 4307.174598 2442.086538 4396.217542 0 
2093.24959 4318.151777 2441.977305 4395.850906 2 
2139.977163 4339.144354 2441.91929 4396.078332 0 
2145.759762 4348.868179 2441.810246 4395.944327 0 
2136.781179 4357.04812 2442.246985 4395.901892 0 
2238.763152 4376.982542 2442.210944 4396.184122 1 
2212.230775 4382.107439 2441.852912 4395.98522 1 
2211.119729 4389.212406 2442.066271 4396.099325 1 
1605.137003 2030.902808 1670.066867 2030.136594 1 
1618.804586 2031.794172 1670.2375 2030.031749 1 
1607.188526 2033.90679 1669.860081 2030.198289 1 
1592.024969 2037.920328 1669.892616 2030.056148 1 
1595.218447 2039.889601 1670.20804 2030.2316 1 
1628.122143 2037.168984 1670.165721 2030.102917 1 
1571.026423 2048.768633 1669.838137 2029.896152 1 
1631.231038 2039.154408 1670.245477 2030.118042 1 
1587.807216 2051.062344 1670.004635 2029.861802 1 
1613.106517 2046.992135 1670.143551 2030.045043 1 
1618.148925 2046.753632 1669.993332 2029.923895 1 
1577.92396 2063.135947 1670.230043 2029.892407 1 
1082.775548 2264.188083 1669.874007 2030.147691 0 
1134.107067 2262.789728 1670.000608 2029.883489 2 
1607.808361 2060.088745 1670.029642 2029.789399 1 
1230.993153 2255.025119 1670.15744 2030.050369 0 
1622.837463 2055.912076 1670.162171 2030.19398 1 
1601.154211 2071.055722 1669.989023 2030.053136 1 
1533.059354 2117.232354 1670.227031 2030.233313 0 
1535.118302 2122.207073 1669.87572 2030.14385 0 
1538.145156 2125.999727 1670.041541 2030.002223 0 
1623.039455 2066.792149 1670.135712 2030.097815 1 
1645.130894 2050.915354 1670.137214 2029.874047 2 
1647.190473 2051.044655 1670.174417 2029.777936 2 
1649.20673 2050.086588 1670.221916 2030.110941 0 
1653.892309 2046.960939 1669.914077 2030.201663 0 
1654.943293 2046.891108 1670.184976 2029.811595 0 
1655.848181 2045.810697 1670.205445 2030.243337 0 
1659.060424 2043.996985 1669.99556 2029.849879 0 
1661.039134 2042.881271 1670.197694 2029.920029 0 
1663.046625 2042.084908 1670.044076 2029.987098 0 
1663.879563 2041.968493 1670.015034 2029.836293 0 
1664.805081 2040.98695 1670.197235 2029.94739 0 
1666.197888 2039.861311 1669.899053 2029.891181 0 
1667.002419 2039.834029 1669.952776 2030.1006 0 
1667.894726 2038.908221 1670.093937 2030.20515 0 
1669.155206 2038.839497 1669.805029 2029.94434 0 
1669.970768 2037.752723 1670.114369 2029.767393 2 
1670.087632 2037.908445 1670.004491 2030.217195 2 
1670.126938 2037.769525 1669.803488 2030.182019 2 
1670.006475 2037.750723 1669.879409 2029.954363 2 
1669.862034 2038.028462 1670.095545 2030.114453 2 
1671.112491 2037.798321 1669.965054 2029.757218 2 
1670.956541 2037.808991 1670.212368 2029.861747 2 
1670.898487 2037.767397 1670.056087 2030.119256 2 
1670.77012 2037.920456 1670.136649 2030.107752 2 
1672.078902 2037.89114 1670.074947 2029.95584 2 
1671.910665 2038.128435 1669.887859 2030.16714 2 
1672.129158 2038.017268 1669.871503 2030.241192 2 
1671.79573 2038.217048 1670.105645 2030.158221 2 
1674.765368 2042.820699 1670.165439 2029.971909 2 
1674.879689 2043.127807 1670.083656 2030.028177 2 
1676.145204 2042.889744 1669.897432 2030.165324 2 
1676.0602 2042.784082 1670.023076 2029.889102 2 
1676.925222 2042.848022 1670.094942 2030.085887 2 
1677.226457 2043.2328 1670.003027 2030.105615 2 
1678.000068 2042.124531 1670.096806 2030.045797 2 
1678.091579 2041.952452 1669.954018 2030.106947 2 
1678.02315 2041.869457 1669.828857 2030.15284 2 
1679.247263 2042.162513 1669.931017 2030.142467 2 
1678.802257 2042.078449 1670.057791 2030.112457 2 
1680.112531 2041.830867 1669.751558 2029.787752 2 
1701.928889 2062.0965 1670.123639 2029.905346 0 
1701.0793 2059.876667 1669.760961 2029.829368 0 
1697.751198 2055.107767 1670.125165 2030.092776 0 
1696.810219 2052.829184 1669.949723 2030.083369 0 
1694.948641 2050.02858 1669.986209 2029.945904 2 
1694.941093 2049.167225 1669.838371 2029.993349 2 
1694.995674 2048.146162 1669.855806 2029.858205 2 
1696.227029 2047.857364 1669.895957 2029.905918 2 
1698.203864 2047.769596 1670.061264 2030.033164 2 
1698.896263 2047.072224 1670.112532 2029.897461 0 
1700.929991 2045.987698 1670.240237 2029.99021 0 
1703.066881 2044.93996 1669.823579 2029.765522 0 
1705.21854 2044.059787 1669.961426 2029.909633 0 
1705.977012 2044.049798 1670.152982 2030.222686 0 
1706.94596 2042.758788 1669.830891 2029.922989 0 
1708.866153 2041.976848 1670.078906 2029.820017 0 
1710.996444 2040.89017 1670.103181 2030.142708 0 
1712.212394 2039.965713 1669.790169 2029.892385 2 
1712.203411 2038.780406 1670.132595 2030.020292 2 
1873.970366 2063.206174 1670.035814 2029.938906 0 
1877.015961 2057.24724 1670.098539 2030.242973 0 
1859.047038 2048.001521 1670.215659 2030.242998 0 
1856.010309 2041.79655 1669.915986 2030.126462 0 
1838.023398 2036.244893 1670.196478 2029.769842 2 
1834.885063 2030.049659 1670.16255 2029.847457 0 
1832.765372 2025.202719 1669.989842 2030.218783 0 
1771.233124 2023.872438 1669.989075 2029.95349 0 
1769.828611 2020.774889 1670.142396 2030.094572 0 
1767.772129 2017.990934 1670.087545 2030.069167 0 
1766.242455 2015.053204 1670.062165 2030.002764 0 
1764.099754 2013.228151 1669.879226 2029.873152 2 
1770.223044 2007.825704 1669.892994 2029.858107 0 
1829.125363 1988.805544 1669.955564 2030.140735 2 
1826.758263 1985.195407 1670.109517 2030.241387 0 
1823.817844 1979.848592 1669.944877 2029.896455 0 
1821.873481 1975.837273 1670.241027 2029.89561 0 
1820.078207 1971.078572 1670.214777 2030.070662 0 
1816.881776 1967.026942 1669.823426 2030.23153 0 
1815.005093 1961.952651 1669.854682 2029.978137 0 
1813.028355 1957.997676 1670.086244 2029.903718 0 
1706.053221 2009.791809 1669.794453 2030.061484 2 
1705.237215 2010.15397 1670.052871 2029.80506 2 
1703.752562 2008.247748 1669.951515 2029.876042 0 
1703.83502 2006.942542 1670.021652 2030.163227 0 
1702.771114 2005.986429 1669.983889 2029.90289 0 
1701.76337 2005.057314 1669.88442 2030.018463 0 
1701.759965 2003.989102 1670.2466 2030.03832 0 
1701.236778 2003.082845 1670.192038 2030.039999 0 
1701.124653 2001.236491 1669.851483 2030.111868 2 
1701.140461 2000.154353 1670.166928 2030.143022 2 
1900.152101 1784.868443 1669.769065 2030.237121 0 
1895.060985 1774.040717 1670.150348 2030.0821 0 
1909.777145 1738.884237 1670.23499 2029.790516 0 
1888.191551 1747.86941 1670.058979 2030.201516 0 
1782.108512 1876.055579 1669.989837 2030.09529 0 
1770.888424 1880.931875 1669.885289 2029.763077 0 
1764.918366 1879.986772 1670.124945 2029.808826 0 
1761.891125 1873.041874 1670.201849 2029.793226 0 
1759.160317 1867.220913 1669.780347 2029.971302 0 
1753.01163 1866.180695 1669.803402 2030.038775 0 
1744.814932 1868.788392 1670.079291 2029.756483 0 
1737.907802 1871.88827 1670.207999 2029.766314 2 
1735.193849 1866.947836 1670.111604 2029.832273 0 
1731.129711 1860.246893 1669.84535 2029.798076 2 
1737.983665 1822.220296 1669.856902 2030.12479 0 
1733.012169 1810.808751 1670.168016 2029.922486 0 
1728.779664 1801.198363 1670.143788 2030.041294 0 
1722.129058 1794.19719 1669.83007 2030.19399 0 
1714.235582 1798.159361 1670.200472 2029.893384 2 
1707.797631 1789.158471 1669.909698 2030.24148 0 
1704.856307 1748.771302 1669.823754 2030.236018 0 
1695.768195 1750.919104 1669.784094 2030.00186 0 
1687.889399 1747.890997 1669.87665 2030.151569 0 
1680.949748 1680.794665 1669.824054 2029.979412 0 
1670.243028 1520.217842 1669.770706 2030.122086 0 
1653.165032 1482.850775 1670.066075 2030.150614 0 
1648.760136 1705.016548 1669.793998 2029.807767 0 
1657.925019 1905.953696 1669.799247 2030.031326 2 
1653.974998 1907.873001 1670.017344 2029.993193 0 
1651.042104 1910.051439 1670.245053 2030.181504 2 
1646.192435 1904.871703 1670.083072 2029.892183 0 
1623.916368 1827.157127 1670.121595 2029.909396 0 
1618.124969 1830.1423 1669.781482 2030.040001 0 
1612.243076 1833.097557 1669.940616 2029.753212 2 
1514.864105 1554.984614 1669.810979 2030.039124 0 
1513.18831 1594.860226 1669.82045 2029.913308 2 
1508.983227 1625.087795 1670.156501 2029.775331 0 
1584.889233 1836.151554 1670.206835 2029.831669 2 
1579.773257 1839.039907 1669.973852 2029.939625 0 
1623.947034 1940.845446 1670.099021 2029.822003 2 
1621.237747 1942.130503 1670.112004 2030.230822 0 
1618.97806 1945.80262 1670.234034 2030.092165 2 
1621.037234 1952.795013 1669.881288 2029.975544 2 
1617.905238 1953.951739 1670.138852 2030.138465 0 
1614.789533 1955.045354 1670.163796 2029.928767 0 
1611.946908 1957.120631 1670.010435 2029.970166 0 
1609.910538 1958.234287 1670.159791 2030.107571 0 
1606.829733 1959.008812 1670.179574 2029.817479 0 
1603.889315 1961.041579 1669.798302 2030.117375 0 
1602.094199 1961.782336 1669.95954 2029.881433 0 
1597.827348 1964.090828 1670.106977 2029.982587 0 
1595.792567 1964.99583 1669.871052 2029.8321 0 
1591.791183 1966.784848 1670.010867 2029.988092 0 
1590.155478 1967.771302 1670.208257 2029.816016 2 
1389.755589 1827.118048 1670.173588 2029.835322 0 
1395.87686 1844.103162 1669.902801 2030.016176 0 
1615.894741 1996.951103 1669.883551 2030.238939 1 
1424.983438 1886.093091 1669.870372 2030.060787 0 
1429.93392 1899.22735 1669.793374 2029.976487 0 
1437.973179 1911.914425 1670.058587 2030.014363 2 
1431.949273 1917.819453 1669.752454 2029.854751 2 
1629.840755 2014.210711 1669.920768 2029.846344 1 
1426.078759 1932.844355 1669.931666 2030.20562 0 
1437.197517 1947.084467 1669.971796 2029.842257 0 
1446.785569 1958.105347 1669.831197 2030.019008 2 
1617.948439 2014.951569 1669.829795 2030.132358 1 
1610.928919 2015.873168 1669.858845 2030.152098 1 
1457.037594 1983.167432 1669.91646 2030.236867 0 
1555.236885 2008.918915 1669.841618 2029.82764 1 
1597.879626 2019.012386 1669.923984 2030.208385 1 
1583.106741 2020.105649 1670.164005 2030.054258 1 
1476.940116 2011.885801 1670.146515 2029.975685 2 
1607.241148 2027.227712 1670.244693 2029.939586 1 
1603.929281 2027.824488 1669.821945 2030.1082 1 
2393.947657 1001.93079 2899.010298 1001.23525 1 
2547.848221 1013.176758 2899.222117 1000.835106 2 
2793.845673 1007.813735 2898.912746 1000.975298 2 
2794.076121 1011.08673 2898.933683 1000.932862 0 
2795.942379 1014.847688 2899.23712 1001.132495 0 
2797.983489 1018.133635 2898.858181 1000.974637 0 
2799.111347 1020.852874 2899.164223 1000.790629 0 
2800.927363 1023.236168 2899.148828 1001.125019 0 
2801.916957 1025.909126 2899.110269 1001.015179 0 
2803.835885 1029.082386 2899.100285 1000.931557 0 
2805.146122 1031.763031 2899.156856 1000.972243 2 
2788.099761 1040.840539 2899.155105 1000.79214 0 
2779.938227 1048.142224 2899.174636 1001.171716 0 
2782.02586 1051.782816 2898.896353 1000.887207 0 
2783.885691 1054.810576 2898.927835 1001.063053 0 
2785.796744 1058.826664 2898.938072 1000.963701 0 
2787.98579 1062.798342 2899.22888 1001.071675 0 
2789.130728 1066.079165 2898.753232 1001.02685 0 
2792.092196 1069.160087 2899.249092 1000.941957 2 
2788.750627 1076.154197 2898.984097 1000.938854 2 
2568.046422 1241.908733 2898.860571 1000.822281 2 
2786.941549 1089.006924 2898.959488 1001.07724 0 
2795.0675 1087.137323 2898.890293 1001.114244 2 
2797.213987 1091.078366 2898.827945 1000.949777 0 
2799.126707 1094.806825 2898.771451 1001.007436 0 
2801.13599 1099.774683 2898.784285 1000.978186 0 
2803.184771 1103.783378 2899.170142 1001.185397 0 
2804.187575 1107.904239 2898.874252 1000.983996 0 
2807.062972 1112.984822 2899.056277 1000.754521 0 
2809.241746 1116.765765 2899.081761 1001.059245 0 
2796.153088 1144.222054 2898.923489 1001.117075 0 
2807.05042 1137.001434 2898.816852 1000.927127 2 
2812.058259 1138.838304 2899.184562 1000.944248 2 
2819.862987 1135.218848 2899.172434 1000.797758 2 
2830.752226 1125.092576 2899.233155 1001.1898 0 
2838.246815 1121.857407 2898.923797 1001.059787 0 
2842.092229 1121.230074 2899.064308 1001.083974 2 
2844.245839 1126.896069 2898.89322 1001.148928 0 
2828.868123 1178.066708 2899.016003 1001.168542 0 
2832.818142 1183.082855 2898.845669 1001.126401 2 
2840.171159 1183.780231 2898.820649 1000.784146 2 
2843.249079 1192.243083 2898.831903 1000.751305 0 
2847.085659 1200.815059 2899.191105 1001.082475 0 
2851.922465 1209.864902 2898.892262 1000.764694 0 
2856.844976 1218.20657 2899.098668 1000.840816 2 
2860.852638 1239.241888 2899.239743 1000.970761 0 
2869.058596 1235.005746 2898.889303 1001.126739 0 
2878.838602 1204.984972 2899.003139 1000.75976 0 
2886.015203 1201.073788 2898.793906 1001.014282 0 
2892.066871 1197.87581 2899.015587 1000.902531 2 
2898.940868 1253.956692 2899.235005 1001.113333 0 
2906.071594 1249.877267 2899.128027 1001.16657 0 
2911.833837 1207.976696 2898.757386 1000.936475 0 
2917.968584 1202.247129 2899.157236 1000.77718 2 
2949.002876 1400.796539 2899.153918 1001.091477 0 
2961.031511 1396.907058 2899.101238 1000.796714 0 
2973.230846 1390.145144 2899.060997 1001.047717 2 
2949.770954 1229.826584 2899.200248 1000.961822 0 
2959.033276 1236.185253 2898.825155 1000.85487 2 
3020.81252 1420.203182 2898.771441 1000.896357 1 
3024.929878 1387.778827 2899.082832 1001.148462 1 
3033.775956 1378.990068 2899.175641 1001.028832 1 
3048.036607 1377.07956 2898.870309 1000.818118 1 
2951.236618 1123.221547 2898.864832 1001.217464 2 
2955.116691 1121.175829 2899.015181 1001.137644 0 
2957.752413 1117.965429 2898.849466 1001.035689 2 
3082.900682 1337.924621 2899.140559 1000.963203 0 
3101.877803 1345.161999 2899.10956 1001.057681 0 
3120.190826 1350.942393 2898.956143 1001.216782 2 
3062.182461 1242.881784 2898.995614 1000.969068 0 
3071.211344 1239.115923 2899.037187 1001.197962 0 
3134.087469 1305.152019 2899.165425 1000.95416 0 
3145.077848 1298.930607 2898.841804 1001.080261 0 
3099.146036 1227.94127 2898.865949 1000.796718 0 
3097.115891 1211.756508 2899.009921 1001.243694 0 
3089.168507 1191.869481 2899.051375 1001.109333 2 
3097.061874 1187.757518 2899.076115 1000.994335 0 
3104.889302 1183.821729 2899.213403 1000.850646 0 
3112.187651 1178.00059 2898.798608 1001.025121 2 
3285.902609 1283.214033 2899.229281 1001.230457 2 
3355.89464 1290.821085 2899.060717 1000.790675 0 
3016.012355 1071.176666 2898.837394 1000.878246 0 
3012.183174 1064.097315 2898.871941 1001.101682 0 
3008.216796 1057.173316 2898.961015 1001.02867 0 
3005.180834 1050.78713 2898.773004 1000.820136 0 
3001.858858 1046.236408 2898.920782 1000.79651 0 
2998.986997 1040.969389 2899.07163 1001.139606 0 
2996.933422 1037.050911 2899.120063 1001.078062 2 
3001.121996 1034.93078 2899.118737 1000.884351 0 
2981.857447 1026.206131 2899.012597 1000.790621 0 
2980.053446 1022.134538 2899.142303 1001.020242 0 
2979.057854 1018.853317 2898.798911 1000.988688 0 
2976.890447 1015.821916 2899.058823 1000.999306 0 
2975.808323 1014.229605 2899.045815 1001.045321 0 
2973.948994 1010.867446 2898.934927 1001.132417 0 
2972.168357 1007.80499 2898.960479 1001.040352 2 
2971.98577 1005.829216 2899.174704 1001.093217 2 
2977.785347 1003.937301 2899.133838 1001.088793 0 
2980.821839 1001.026141 2898.859035 1001.129693 2 
2981.129458 998.9079463 2898.868381 1000.769906 0 
2979.979862 996.1772038 2899.019211 1001.038185 0 
2979.156809 993.815027 2898.833506 1000.855803 0 
2977.932473 992.018433 2899.23822 1000.850829 0 
2976.073423 988.9486987 2899.141182 1000.809193 0 
2975.027915 987.0658852 2899.15241 1001.063262 0 
2973.753186 985.0362486 2898.902056 1000.825025 0 
2972.81239 983.0110904 2899.204718 1001.191848 2 
2978.169037 978.8230987 2899.211754 1000.898899 0 
2990.750303 971.980965 2899.187084 1001.157111 0 
3108.045992 925.7705901 2898.762914 1001.228465 0 
2911.039023 995.7511344 2898.829294 1000.862446 2 
2909.949833 996.2204754 2898.921639 1001.227748 2 
2909.036361 995.8240497 2899.04101 1001.039547 2 
2908.110298 995.1930658 2899.114572 1001.172688 0 
2907.954156 994.0692903 2899.114536 1000.873193 0 
2907.142389 993.0762893 2899.022092 1001.142692 0 
2906.807254 991.9591758 2899.049803 1001.103246 0 
2905.979766 991.0627175 2899.081711 1000.768789 0 
2906.063852 990.1610048 2898.881235 1000.763685 0 
2905.13148 989.0528744 2899.241433 1000.917841 0 
2905.126924 988.0324432 2899.207388 1000.987223 0 
2903.975509 987.07196 2898.90991 1001.179665 0 
2902.89125 985.7744462 2898.802858 1000.783639 0 
2902.100735 984.0749499 2899.176331 1001.15799 0 
2901.784126 982.976134 2899.011236 1001.013892 0 
2900.788851 981.8429472 2899.032681 1001.102703 0 
2899.753952 981.1639159 2899.116388 1001.135432 2 
2899.96679 981.1078209 2898.803273 1000.843714 2 
2902.890264 849.760661 2899.080937 1001.115773 0 
2899.082621 852.2408473 2899.045438 1001.223871 2 
2892.765293 835.0982966 2898.757511 1001.116029 0 
2887.923247 834.1838417 2899.024019 1000.957372 0 
2882.909976 832.785255 2899.221264 1000.948827 0 
2875.878202 821.0039447 2898.80153 1000.882154 2 
2873.917861 843.1679184 2898.767587 1001.134651 2 
2869.025739 844.8208597 2899.228365 1001.166003 0 
2863.831521 848.0593021 2899.031776 1001.164142 0 
2860.050149 850.8272149 2899.138013 1001.065443 0 
2854.175511 847.1455239 2898.931472 1000.848758 0 
2796.079366 685.2054906 2899.05613 1001.239341 2 
2764.240746 626.0273943 2898.938168 1000.868948 0 
2749.781339 626.9896987 2899.001102 1000.9492 0 
2837.907617 860.0186885 2898.83385 1001.183356 2 
2834.089548 862.8122157 2899.09936 1001.171069 0 
2829.121518 864.8811361 2899.085211 1000.921667 2 
2809.958351 840.973224 2899.23711 1000.883862 0 
2805.868748 843.9185821 2898.98262 1001.198113 2 
2654.874073 615.7887508 2899.187455 1000.864818 0 
2690.066145 692.8756231 2898.983766 1001.097484 2 
2758.115322 807.2348681 2898.796684 1000.772939 2 
2783.003557 852.8805342 2899.206295 1000.843105 2 
2792.94275 874.0556548 2898.764174 1000.814268 2 
2788.186791 876.0993847 2898.985935 1000.895142 0 
2782.822609 877.9730453 2899.029004 1000.941357 0 
2778.141627 880.7616248 2898.88947 1000.7657 0 
2772.800376 883.8269248 2898.880518 1001.116521 0 
2524.952548 672.1142845 2898.964005 1000.81787 0 
2616.099153 768.0106883 2898.840808 1000.852709 2 
2636.141222 797.7971036 2898.945814 1000.833972 2 
2677.102758 840.9599878 2898.89824 1001.039549 2 
2670.809373 846.1341753 2899.184691 1000.881981 0 
2661.857221 850.9636954 2899.073338 1001.248848 0 
2657.97532 859.212808 2898.764548 1001.025696 2 
2648.789733 863.8950665 2898.892216 1000.992281 0 
2643.759351 872.1062211 2899.06015 1001.108504 0 
2646.866909 883.1509589 2899.211213 1000.758132 0 
2729.198063 927.9070267 2898.842104 1001.050821 2 
2732.117014 935.9903443 2898.84037 1001.176387 0 
2734.87452 942.7750612 2898.808368 1000.98174 0 
2738.988757 950.1317062 2898.980588 1001.214077 0 
2744.094514 956.9951363 2898.989773 1001.134247 2 
2738.140203 960.1319892 2898.876528 1001.149554 0 
2730.98821 964.1866781 2899.008057 1001.10512 0 
2723.087637 967.9692702 2899.113251 1001.0357 0 
2716.126297 972.2053556 2898.83652 1000.993311 0 
2521.9457 952.9268905 2898.919698 1001.07022 2 
2503.951952 963.9780667 2898.80196 1001.190708 0 
2483.859773 975.032548 2899.154785 1001.204287 0 
2232.777684 979.894558 2899.088534 1001.167887 2 
2417.776547 3671.215062 4438.067441 3667.014757 2 
1291.15174 3770.825499 4437.869877 3666.989377 2 
4161.044769 3685.233128 4437.775077 3666.921066 1 
4166.188484 3693.861597 4438.164377 3666.884184 1 
4175.038488 3700.834075 4438.204404 3667.240439 1 
4165.062142 3710.756363 4438.181148 3667.171915 1 
4176.038911 3718.085933 4438.126202 3667.066596 1 
2647.230491 4070.964736 4437.984483 3666.757038 2 
3999.929798 3779.801924 4438.021796 3666.831538 1 
4001.877422 3795.141673 4438.070915 3667.172191 1 
3998.124801 3811.095992 4437.843257 3667.063285 1 
3996.207589 3826.757633 4438.197469 3666.996077 1 
2838.841709 4303.151873 4437.986516 3667.153851 0 
3661.158236 4004.917664 4438.075765 3666.947148 2 
3672.753597 4027.951968 4437.763743 3667.234088 0 
3248.166704 4274.998226 4438.241126 3666.846502 0 
3716.05015 4065.012921 4437.92804 3667.177572 2 
3885.904594 3994.248956 4438.099764 3666.779395 2 
3948.094947 4001.19302 4438.09268 3667.052536 2 
3955.200654 4019.040149 4437.798613 3666.792362 0 
3962.942022 4036.035129 4438.196213 3666.850258 0 
3971.202792 4054.021978 4438.047406 3667.206389 0 
3979.223946 4072.061149 4438.190476 3667.14065 0 
3988.809375 4090.181602 4438.237152 3667.109525 2 
3431.944524 4675.915192 4438.037097 3667.099118 0 
3777.914147 4370.886861 4438.128513 3666.759095 0 
3793.829881 4398.971193 4438.061631 3666.780535 0 
3808.761342 4428.110244 4437.822897 3666.953364 0 
3823.895373 4460.76911 4438.053622 3666.848166 0 
4010.041088 4257.851028 4437.804555 3667.015034 0 
4067.162177 4214.245031 4437.905684 3667.221552 2 
4080.176633 4230.892836 4438.081077 3666.871157 0 
4093.058028 4295.868174 4438.220274 3667.222175 2 
3995.005035 4539.098787 4438.23127 3667.084916 0 
3963.81998 4677.042901 4438.11545 3666.831322 2 
4011.903145 4654.188347 4438.034686 3667.048519 0 
4053.207457 4641.838308 4438.146684 3666.998546 0 
4089.939337 4637.201239 4437.76358 3666.851514 0 
4140.19627 4587.919264 4437.823066 3667.122903 0 
4198.0621 4496.154143 4438.24406 3666.870127 2 
4258.772317 4364.214334 4437.842302 3667.027352 1 
4281.063121 4369.823572 4437.862268 3667.133101 1 
4188.116473 4983.227719 4438.214422 3666.769618 0 
4358.166066 4170.999108 4438.068137 3667.123524 1 
4298.087417 4779.964821 4437.872069 3666.776753 0 
4333.91606 4768.885649 4437.878267 3666.86233 0 
4364.054913 4857.951334 4438.235233 3666.867013 0 
4396.855477 4974.229293 4437.98714 3666.877794 0 
4470.193627 4686.079442 4438.155146 3667.006748 0 
4502.153014 4676.767414 4437.889848 3667.019487 0 
4536.245133 4704.854271 4438.039105 3667.161199 2 
4510.103379 4239.857242 4438.034723 3666.940796 1 
4476.072063 3907.156792 4437.967549 3667.238123 1 
4481.792441 3902.095817 4437.850453 3667.097354 1 
4492.79715 3912.835686 4438.214367 3666.902627 1 
4498.814978 3906.951508 4438.030421 3666.758605 1 
4712.78095 4613.935567 4438.015353 3667.183964 2 
4793.952981 4762.155201 4437.953451 3666.948114 0 
4956.759472 4977.242557 4437.859313 3667.112851 2 
4798.849799 4502.144036 4437.803646 3667.171862 0 
4824.050827 4489.021196 4438.159986 3667.093268 0 
4642.867012 4069.760439 4437.940623 3666.914163 1 
4664.846125 4050.90499 4438.066789 3666.911104 1 
4668.106498 4030.84721 4437.919709 3667.137448 1 
4679.032777 4023.185061 4438.071412 3667.235758 1 
4694.090262 4020.774863 4437.933872 3667.099734 1 
4655.76742 3770.043185 4437.962584 3666.867219 1 
4647.937221 3759.016231 4437.789081 3667.238048 1 
4659.787426 3755.199067 4438.081317 3666.904438 1 
4668.209506 3749.771939 4438.068601 3666.805631 1 
4871.92693 3540.88539 4437.966735 3666.783428 0 
4831.9826 3526.136443 4438.170876 3666.765377 0 
4813.071504 3518.992288 4437.751135 3666.911767 0 
4796.017151 3512.935007 4437.7615 3667.034571 0 
4780.228193 3506.974085 4438.15179 3666.915413 0 
4721.240315 3511.190871 4437.903461 3666.777741 2 
4715.139938 3503.234778 4437.93218 3667.099444 0 
4710.756717 3493.750781 4438.155075 3666.933647 0 
4705.886171 3484.87181 4437.967075 3667.118771 0 
4686.758253 3486.88795 4438.134149 3667.079757 0 
4683.130238 3478.135284 4438.241524 3666.897389 0 
4678.820291 3467.753024 4438.18196 3666.798484 0 
4683.977109 3451.08375 4437.963897 3666.967424 0 
4679.024621 3441.117358 4437.995165 3666.914559 0 
4674.102136 3432.177345 4437.764003 3667.108853 0 
4669.178126 3422.169078 4437.792501 3666.814297 0 
4663.790888 3411.009575 4438.183068 3666.799141 0 
4659.147526 3401.067216 4438.128898 3667.027764 0 
4652.9525 3389.120422 4438.175153 3667.022792 2 
4638.123446 3392.107114 4438.071275 3666.850555 0 
4632.940864 3380.785172 4438.067979 3667.215485 0 
4627.15253 3369.813145 4437.880044 3667.004667 0 
4630.24049 3318.894047 4437.86352 3667.168615 0 
4619.813125 3308.906021 4438.232912 3666.854013 0 
4537.165596 3455.16598 4437.903153 3667.063122 0 
4526.983196 3459.782051 4437.840886 3667.185696 0 
4509.152473 3468.766039 4437.958488 3667.025919 0 
4501.123153 3471.779763 4438.126475 3666.814017 0 
4492.814935 3475.944454 4437.779501 3667.217466 0 
4486.007598 3478.909545 4437.972132 3666.998088 0 
4479.053592 3480.085652 4437.916703 3667.116717 0 
4475.241673 3470.899615 4438.220729 3667.157269 0 
4469.815595 3460.873882 4437.97039 3667.048791 0 
4464.905933 3450.061276 4437.984487 3666.808406 0 
4463.077316 3404.192975 4438.084326 3666.950468 0 
4454.222739 3407.9608 4438.014485 3666.787674 0 
4446.155254 3412.043986 4437.75514 3666.912853 0 
4438.203532 3415.977272 4438.160941 3667.007123 0 
4429.812924 3418.827644 4437.87384 3666.804597 0 
4421.977259 3422.844569 4438.211866 3667.042854 0 
4421.968451 3503.932256 4437.841644 3667.124385 1 
4421.243532 3533.076132 4438.182791 3667.070848 1 
4413.019107 3512.017117 4437.771316 3666.991846 1 
4410.227918 3521.035801 4438.02952 3667.133172 1 
4405.829788 3527.034659 4437.796025 3666.78332 1 
4405.761931 3544.206965 4438.040443 3666.824855 1 
4396.784609 3528.164283 4437.879452 3667.011868 1 
4391.758852 3527.841318 4437.804722 3666.977304 1 
4393.023574 3542.896366 4437.851689 3667.017106 1 
4379.222498 3519.78448 4437.837954 3666.991605 1 
4368.051597 3507.85927 4438.233451 3667.029515 1 
4379.145072 3544.01297 4437.912687 3667.22486 1 
4354.79763 3505.958711 4437.758179 3666.809561 1 
4366.915677 3540.048622 4437.884416 3666.950286 1 
4344.962905 3511.013868 4438.212154 3666.971758 1 
3758.105186 2592.766876 4438.199061 3666.878759 2 
3489.913242 2269.80075 4438.145865 3666.88574 0 
3810.83523 2803.233819 4438.127345 3667.136827 0 
3805.843089 2852.110795 4437.916342 3667.238161 0 
3677.873766 2747.079028 4438.213021 3666.921395 0 
3903.78774 3060.2212 4437.980956 3666.953417 0 
3903.019822 3097.115372 4438.153703 3667.232728 2 
3882.87924 3112.115857 4437.954485 3667.234425 0 
3862.132733 3124.903547 4437.863185 3666.795975 0 
4372.954297 3610.75905 4437.931714 3667.039526 1 
4362.242869 3604.809059 4437.926353 3666.835958 1 
4351.169854 3600.092695 4437.824119 3666.793619 1 
4365.921723 3615.78714 4437.965015 3666.959463 1 
4346.75834 3606.19597 4438.162879 3667.028162 1 
4367.061342 3622.066582 4438.01089 3667.190582 1 
4361.932439 3622.215375 4438.175007 3666.815172 1 
4357.868922 3623.788192 4437.861147 3667.073219 1 
4358.797242 3627.042861 4437.862745 3666.790111 1 
4365.10192 3633.039099 4437.876069 3667.021774 1 
4361.881793 3633.950188 4438.065393 3667.053516 1 
3871.987327 3441.780407 4437.762979 3666.995667 1 
4349.226378 3636.175858 4437.773829 3667.03772 1 
4351.992441 3639.034719 4437.978302 3667.17488 1 
4342.000094 3639.90331 4438.240052 3667.119016 1 
4252.941502 3619.851199 4437.942235 3666.988744 1 
4253.14406 3626.05498 4438.028854 3666.995979 1 
3556.844079 3498.154923 4437.767753 3666.975872 0 
3507.855111 3519.083146 4437.779389 3667.092438 0 
3520.113553 3549.792368 4437.838105 3667.089931 0 
3462.218226 3573.861934 4437.877651 3666.960667 0 
3411.146653 3601.105953 4437.885547 3666.896747 0 
3458.759263 3634.875599 4437.765764 3666.950765 1 
1908.976798 4441.957999 2039.189508 4440.870857 0 
1911.762979 4445.968363 2039.116837 4440.857058 2 
1905.873286 4450.13459 2039.082931 4440.978397 0 
1896.967736 4455.112319 2038.820835 4440.831289 0 
1886.154687 4460.908941 2039.17122 4441.122913 0 
1873.020875 4467.798872 2038.83358 4440.917528 0 
1879.154825 4471.969126 2039.064276 4441.164088 0 
1884.094725 4476.080039 2038.864853 4440.821523 2 
1926.788038 4469.804361 2038.94238 4440.801017 2 
1929.022724 4473.809217 2038.908076 4441.14601 0 
1930.193807 4477.241006 2038.874407 4440.911542 0 
1932.103326 4479.945242 2038.992831 4441.008012 0 
1933.104182 4482.914052 2038.880925 4440.875057 0 
1934.962923 4485.964505 2039.042585 4440.867748 0 
1937.183631 4489.856861 2038.781836 4441.028356 0 
1938.186901 4492.896689 2039.099879 4441.224939 0 
2003.95105 4460.792259 2038.775956 4441.223774 2 
2005.851476 4460.934032 2039.119784 4440.795282 2 
2005.925039 4462.244191 2038.956825 4440.778364 2 
2005.939433 4463.199656 2039.036377 4440.793615 2 
2006.863708 4465.167302 2038.918672 4441.076631 0 
2006.881807 4466.211258 2039.194379 4440.815438 0 
2007.818119 4467.226215 2039.093794 4440.755019 0 
2007.872905 4467.943673 2039.229958 4441.073955 0 
2008.985931 4468.755914 2039.047729 4441.087407 0 
2009.939947 4470.917514 2039.132689 4441.114985 0 
2010.911704 4471.839514 2039.143349 4441.101137 0 
2011.78917 4473.929726 2039.144752 4440.902878 0 
2011.847028 4474.813424 2039.229509 4440.978834 0 
2012.774682 4476.173888 2039.044272 4440.8428 0 
2014.150103 4477.888066 2038.84782 4440.773007 0 
2014.081739 4478.827778 2039.096962 4440.81767 0 
2014.833692 4479.894692 2039.155077 4441.023639 0 
2016.062205 4482.037766 2038.888624 4441.22391 0 
2017.12728 4482.781973 2039.075047 4441.16645 0 
2017.961699 4484.969799 2038.819328 4441.058727 0 
2019.033223 4486.798837 2038.787561 4441.057904 0 
2020.222724 4489.081833 2039.150704 4441.122827 0 
2021.219899 4491.248524 2039.145835 4441.051638 0 
2021.826302 4492.992797 2039.119308 4440.909994 0 
2023.137489 4494.024385 2039.183633 4440.949694 0 
2023.812151 4495.822257 2038.923604 4441.189431 0 
2025.85423 4500.248651 2039.105882 4441.065929 0 
2026.96845 4502.17521 2038.874656 4440.751672 0 
2029.224046 4503.912217 2039.059576 4441.19677 2 
2030.24405 4504.960281 2039.069598 4441.213949 2 
2024.958805 4581.965432 2039.015587 4441.035107 0 
2025.208229 4660.884895 2039.195101 4441.095718 0 
2031.15928 4691.128734 2038.795412 4441.221431 0 
2039.200991 4685.969016 2039.160863 4440.805221 2 
2046.967667 4701.016744 2039.12115 4441.186116 0 
2051.941954 4647.245805 2039.187788 4440.916001 0 
2057.908022 4643.997365 2038.862771 4440.902072 0 
2064.207646 4641.182369 2038.866021 4440.916451 0 
2069.897801 4637.131608 2039.201557 4440.85603 0 
2074.766503 4635.146658 2039.201748 4441.175784 0 
2093.025392 4685.24716 2039.147215 4440.976383 0 
2099.966175 4681.058078 2039.031604 4441.183842 0 
2074.824822 4566.902754 2039.119958 4441.016776 2 
2073.89856 4551.057746 2039.182777 4441.056582 2 
2076.805111 4549.795548 2039.208653 4440.762757 0 
2081.227916 4547.824674 2038.929207 4440.875717 0 
2084.206282 4545.880765 2038.981747 4441.222786 0 
2086.777423 4543.933495 2039.148569 4441.052816 0 
2089.930654 4543.045784 2038.779199 4441.146829 0 
2092.853862 4541.060803 2039.080671 4440.928684 0 
2139.213558 4610.950629 2039.19546 4440.862117 1 
2132.758376 4589.128237 2039.168699 4440.813487 2 
2106.173785 4540.127352 2038.826244 4441.151701 0 
2098.202026 4524.005451 2038.777418 4441.158308 2 
2101.136216 4523.009165 2039.131094 4441.163639 0 
2105.19266 4521.029663 2038.966454 4440.873314 0 
2106.825447 4519.995653 2038.770143 4440.929309 0 
2107.806457 4515.100814 2039.107993 4440.770014 0 
2107.801444 4511.053453 2038.882131 4440.809819 2 
2110.93169 4509.80083 2038.873306 4440.855475 0 
2114.178182 4507.94955 2038.757176 4441.130208 0 
2117.205001 4506.784594 2039.038516 4441.091216 0 
2120.04376 4504.91961 2039.004855 4440.986419 0 
2123.199273 4503.221309 2039.109733 4440.77472 2 
2133.966962 4506.129876 2038.954029 4441.023419 0 
2137.980691 4503.812021 2039.043433 4441.032135 0 
2141.115474 4502.175564 2039.091954 4440.797164 0 
2140.226394 4497.21526 2038.902638 4441.154576 0 
2136.91481 4490.909814 2039.034784 4440.869811 0 
2133.944409 4485.823301 2039.211027 4441.238168 0 
2131.992911 4481.965882 2038.974588 4440.942184 2 
2135.937191 4479.834321 2038.966904 4441.154153 0 
2140.214198 4478.170933 2038.927572 4440.944888 0 
2143.232954 4475.221006 2039.227023 4441.098428 2 
2141.14657 4471.068977 2039.145592 4441.122965 0 
2139.034238 4466.798231 2039.027541 4441.199048 0 
2136.958045 4462.812325 2038.818859 4441.152454 2 
2139.885626 4460.779886 2039.140622 4441.128536 0 
2144.995768 4457.86521 2038.82072 4441.182959 0 
2148.949531 4456.037624 2039.087112 4440.913729 0 
2154.958557 4452.764685 2039.108617 4440.941512 0 
2162.23569 4449.08564 2038.78994 4441.13226 0 
2167.904617 4446.185532 2039.005225 4441.188855 0 
2177.233763 4440.782766 2039.137903 4440.941808 0 
2183.845091 4437.206762 2038.844261 4440.980717 0 
2193.236648 4432.234883 2038.859253 4440.982415 0 
2202.850093 4425.929973 2038.915374 4441.049624 1 
2213.217598 4419.752486 2039.213353 4440.926155 2 
2203.767171 4415.07197 2039.117667 4440.752861 1 
2232.90761 4404.157607 2039.135122 4441.062227 1 
2219.093139 4400.890347 2039.001082 4441.076901 1 
2217.923113 4394.888985 2038.768709 4441.018204 1 
2230.845746 4385.86297 2039.24892 4440.832394 1 
2238.847854 4376.858173 2039.064809 4440.947947 1 
2555.038147 4255.230184 2039.247571 4441.005745 0 
2379.23267 4307.210924 2039.1819 4441.249841 0 
2374.032893 4297.049567 2038.752702 4441.190503 0 
2368.957173 4286.137823 2039.00273 4440.800312 0 
2363.77817 4275.753811 2039.127214 4440.951282 0 
2577.892796 4145.145923 2039.219486 4440.988542 0 
2568.758893 4128.218406 2039.070936 4440.856747 0 
2216.82658 4319.885746 2039.054693 4441.114726 0 
2213.865929 4314.052264 2038.870471 4440.848599 0 
2211.013188 4307.802371 2038.84844 4440.796081 0 
2145.101937 4352.851141 2039.236584 4440.809111 0 
2129.238965 4360.989314 2038.859423 4440.767135 2 
2126.993125 4359.236636 2038.968417 4441.135921 0 
2125.132559 4354.937903 2038.874463 4441.141452 0 
2122.906309 4351.195399 2039.248199 4440.982889 0 
2120.831145 4347.052892 2038.847615 4440.947074 0 
2118.855157 4343.968086 2039.045673 4441.118345 0 
2169.020457 4274.144113 2039.164426 4440.872394 0 
2165.245254 4267.15101 2038.931504 4441.234219 0 
2161.890324 4261.040927 2038.751353 4441.133449 0 
2158.027563 4252.96977 2039.01937 4440.910122 0 
2154.157673 4246.143832 2038.801574 4440.813982 0 
2150.089232 4237.799773 2039.046871 4441.170376 0 
2146.102665 4231.144486 2038.86745 4441.207821 0 
2098.862572 4312.163123 2039.076166 4441.133028 2 
2091.057236 4320.990592 2038.755422 4441.05249 0 
2084.891602 4323.936927 2039.036708 4441.031926 0 
2081.227854 4325.038061 2038.915375 4441.005417 2 
2066.757831 4354.184744 2039.165539 4441.165504 0 
2063.078577 4356.217114 2039.229486 4440.917808 0 
2059.766887 4358.026357 2038.838185 4441.119551 0 
2056.920843 4358.955635 2039.077373 4441.033415 0 
2053.868758 4360.903539 2038.916443 4441.175994 0 
2051.144131 4362.921865 2038.978483 4440.785733 0 
2048.108792 4363.765191 2039.067659 4441.086646 0 
2046.053252 4365.233034 2038.842063 4441.061084 0 
2043.167778 4366.757602 2038.976588 4440.996355 0 
2041.224716 4367.956074 2039.164164 4441.241602 0 
2039.232431 4368.752348 2039.111154 4440.903274 0 
2035.957983 4370.938527 2039.186688 4441.076741 0 
2034.092066 4371.853131 2039.002735 4440.986197 0 
2032.024997 4373.231218 2039.02193 4440.883789 0 
2030.246409 4373.83959 2039.220434 4441.049662 0 
2027.822624 4374.812497 2038.860745 4441.240402 0 
2025.820099 4376.087333 2038.986758 4440.794815 0 
2023.793407 4377.900921 2038.786418 4440.775839 2 
2021.903269 4377.147572 2038.929112 4441.111253 0 
2017.836099 4368.865801 2038.937994 4441.178165 0 
2011.968932 4358.190729 2038.914362 4441.243929 0 
2003.171947 4341.186292 2038.877717 4441.168356 0 
1989.775882 4316.848152 2038.968017 4440.848506 0 
1639.910649 3518.078763 2038.838909 4440.980748 0 
1611.916096 3533.075666 2039.025564 4440.959503 0 
1585.226587 3548.061982 2038.985342 4440.879857 0 
1556.959554 3563.164454 2039.24111 4441.045652 0 
1528.780255 3577.929103 2038.973817 4440.999187 0 
1720.869832 3939.138179 2038.993116 4440.791779 1 
1474.074471 3608.120834 2039.210134 4441.100353 0 
1859.218985 4194.928152 2039.198859 4440.879634 2 
1961.756914 4342.787767 2039.110383 4440.92301 0 
1962.113434 4348.885947 2039.132513 4441.090021 0 
1961.197928 4353.867855 2039.219878 4440.907482 0 
1959.782309 4358.210988 2039.203134 4440.812564 0 
1957.890091 4360.926951 2039.061751 4441.009923 0 
1955.81513 4363.804867 2039.051701 4441.1396 0 
1954.175701 4366.011836 2038.989953 4441.144686 0 
1950.189987 4367.938812 2038.774321 4441.196901 0 
1946.97658 4370.134704 2038.869911 4440.840013 0 
1941.77065 4370.752424 2039.180034 4441.218578 0 
1936.870279 4372.149912 2038.87606 4440.902588 0 
1924.1109 4367.829195 2038.965151 4440.750991 0 
1891.006146 4353.776902 2039.010914 4441.071276 0 
1895.831769 4362.812615 2038.960876 4440.75747 2 
1894.074451 4367.20083 2039.152156 4441.014438 2 
1896.889642 4375.176477 2038.96134 4441.116221 0 
1974.061181 4414.081251 2039.206234 4441.081831 2 
1975.083675 4416.136269 2039.050409 4441.203954 0 
1976.036181 4419.17647 2038.856542 4440.897081 0 
1977.755664 4422.071693 2038.898072 4441.01181 0 
1981.098595 4425.158986 2038.833086 4441.180364 2 
1980.221601 4426.043962 2039.187834 4441.046052 2 
1976.994792 4428.089991 2038.81049 4441.134433 0 
1975.016468 4429.02183 2039.000655 4440.827648 0 
1969.853081 4430.956889 2039.159479 4441.186756 0 
1967.843158 4431.959888 2039.14071 4441.129339 0 
1964.886358 4434.247252 2038.77642 4440.892022 2 
1905.068945 4432.924492 2039.153832 4440.91754 0 
1906.833478 4437.236918 2038.847904 4440.805079 0 
2936.030881 4964.785738 2976.101131 4963.775673 0 
2937.125729 4966.161621 2976.160106 4963.892197 0 
2936.933451 4966.910761 2975.969845 4964.036531 0 
2938.11765 4967.879324 2975.973288 4964.210807 0 
2938.089212 4968.863998 2976.090146 4964.22557 0 
2938.86125 4970.116566 2975.867592 4964.180196 0 
2938.791058 4970.771424 2975.847736 4963.874536 0 
2939.758343 4971.94564 2975.929615 4964.039223 0 
2940.981378 4973.780746 2976.064896 4963.857107 0 
2942.192367 4975.975002 2975.999304 4963.875817 0 
2943.135763 4978.219149 2976.162349 4964.003412 0 
2943.848472 4979.885636 2975.964219 4964.187684 0 
2944.999635 4981.804366 2976.163254 4964.110885 0 
2945.170932 4983.780846 2976.04108 4964.21199 0 
2945.80227 4985.138816 2975.836527 4963.810613 0 
2945.834456 4986.016142 2976.099836 4964.065834 0 
2947.046888 4986.914732 2976.172941 4963.989254 2 
2949.139734 4986.922245 2976.115072 4964.025496 2 
2948.891394 4987.02742 2975.778908 4963.989866 2 
2949.163057 4988.993128 2975.927551 4963.912691 2 
3076.047493 4989.840805 2975.773576 4963.968425 1 
3064.871651 4985.064657 2975.930416 4963.923921 1 
3055.953473 4980.016943 2975.984534 4964.037929 1 
3081.783085 4980.83437 2975.853763 4964.079972 1 
3070.999101 4976.776704 2975.819227 4963.888835 1 
3079.948949 4974.184298 2976.164331 4964.090343 1 
3063.961719 4970.19324 2975.830209 4963.874775 1 
3067.936367 4967.00776 2976.037467 4964.233861 1 
3084.098564 4964.061043 2975.952286 4964.220215 1 
3061.8757 4962.132702 2975.894136 4964.079173 1 
3060.899645 4959.12867 2975.867102 4963.932729 1 
3074.213039 4954.970865 2975.762702 4963.962141 1 
3073.997569 4951.831928 2976.100976 4964.196518 1 
3067.766227 4950.015307 2976.036861 4963.977945 1 
3156.958547 4930.11707 2976.102721 4964.144914 0 
3154.87483 4924.890187 2976.128775 4964.223394 0 
3152.20123 4918.831061 2976.193609 4963.82693 0 
3150.213764 4913.837745 2976.156103 4963.863408 0 
3148.216415 4908.773204 2976.046137 4964.179454 0 
3144.994069 4903.058839 2975.891595 4964.241638 0 
3143.140767 4898.24257 2976.188156 4964.156994 0 
3141.007877 4892.975017 2975.884939 4964.216424 0 
3138.842087 4888.23766 2976.111339 4963.966917 0 
3136.877847 4882.990114 2975.940311 4963.829078 2 
3331.071175 4768.88392 2975.906008 4964.034939 0 
3134.971665 4870.812111 2976.148347 4963.93808 0 
3131.835315 4865.944485 2975.867534 4964.079384 0 
3129.753324 4860.009129 2976.071022 4964.144091 0 
3128.001699 4854.009178 2976.051085 4963.759576 0 
3126.234194 4848.186024 2976.226 4963.826281 0 
3064.173684 4891.087339 2976.043198 4963.801531 0 
3059.827453 4890.233509 2975.880609 4964.148628 2 
3058.867428 4887.036616 2975.933567 4964.089094 0 
3058.098727 4882.831914 2975.777174 4964.184042 0 
3161.026399 4766.894708 2976.013426 4964.029722 0 
3149.153836 4766.834448 2975.923813 4963.905535 0 
3138.093626 4768.224898 2975.915111 4964.07782 0 
3130.160922 4765.891112 2976.154102 4964.084606 0 
3128.228451 4754.9473 2976.136137 4963.805904 0 
3126.930808 4742.766746 2976.204532 4964.048237 0 
3125.053362 4729.888099 2975.88733 4963.90209 0 
3122.970014 4714.914504 2975.836132 4964.246412 0 
3121.059211 4699.099558 2976.026135 4963.963047 0 
3119.184007 4684.199948 2976.118582 4964.027633 2 
3122.174846 4653.783693 2975.855453 4964.085769 0 
3111.924805 4650.759555 2975.920375 4963.903255 0 
3106.956854 4632.806512 2975.959159 4964.137663 0 
3101.823258 4612.913691 2975.935899 4964.126621 0 
3091.05179 4611.073229 2975.77871 4963.771804 2 
3085.237733 4587.864842 2975.768216 4964.046944 0 
3079.214401 4564.044351 2975.759991 4964.148407 0 
2999.994299 4855.128573 2975.92604 4963.919146 2 
2996.162266 4856.031493 2975.754914 4963.837071 0 
2993.041048 4855.925289 2975.990327 4964.247902 0 
2988.981802 4856.199486 2976.135564 4964.05506 0 
2985.863177 4855.821463 2975.931681 4964.164967 0 
2983.144692 4854.960391 2976.186771 4964.132425 2 
2983.075234 4730.204987 2975.929369 4964.039634 0 
2975.999338 4740.93936 2975.938042 4964.243637 0 
2973.817933 4901.114082 2975.912783 4964.230199 0 
2971.895574 4901.917697 2975.81727 4964.186622 0 
2970.092986 4903.057597 2976.184524 4963.824788 0 
2968.007083 4904.070088 2976.129848 4964.120259 0 
2966.141552 4904.811529 2976.035226 4964.036244 0 
2964.021921 4905.971997 2975.918669 4963.847155 0 
2962.926983 4907.098038 2976.136789 4964.176321 0 
2960.787398 4907.824831 2976.169958 4963.855331 0 
2959.188912 4908.832741 2975.83553 4963.834487 0 
2958.000438 4908.9028 2975.771108 4963.843424 0 
2956.210397 4910.205632 2975.918213 4963.96748 0 
2955.02572 4910.798061 2975.837739 4963.917272 0 
2952.85959 4912.122965 2976.203516 4964.131511 0 
2950.844962 4912.872185 2976.228666 4964.021945 0 
2950.220223 4913.115455 2975.948267 4963.757621 0 
2948.190285 4913.868225 2975.862952 4964.129198 0 
2946.950966 4914.948481 2976.213684 4964.201403 0 
2945.101282 4916.234792 2975.794828 4964.061679 0 
2943.190425 4916.96304 2975.779159 4963.966145 0 
2941.011101 4917.866898 2976.133417 4964.120692 0 
2940.239863 4918.086933 2976.002203 4963.834824 0 
2938.209119 4918.980869 2976.10677 4964.179342 0 
2936.846323 4919.805036 2976.186963 4963.786609 0 
2934.923261 4920.799915 2976.165806 4964.124226 0 
2932.998396 4922.12949 2976.07563 4963.849678 0 
2931.114283 4923.120458 2976.161357 4964.054707 0 
2929.833498 4924.190515 2975.770852 4964.094599 0 
2927.807413 4925.15427 2975.965291 4963.797275 0 
2925.991203 4926.217494 2975.8821 4963.950322 0 
2923.948362 4927.23887 2975.879664 4964.044685 0 
2921.793906 4927.816627 2976.081294 4963.967167 0 
2919.866542 4928.9971 2975.841393 4964.114938 0 
2917.87659 4930.167023 2976.214616 4964.240872 0 
2916.037481 4931.125973 2976.04558 4964.120979 0 
2913.066488 4932.066432 2975.965578 4964.123901 0 
2909.970702 4934.180868 2976.171176 4964.211905 0 
2908.148362 4934.803276 2975.912226 4963.846724 0 
2904.792146 4936.04189 2976.141409 4963.836052 0 
2902.108517 4937.972703 2976.053219 4964.225059 0 
2899.219803 4939.144612 2976.089998 4963.846393 0 
2931.061636 4952.054614 2975.837265 4963.849116 2 
2930.930587 4953.132845 2976.220095 4964.247075 2 
2931.949277 4954.935673 2976.120976 4964.169979 0 
2931.866541 4956.042152 2976.131883 4963.764903 0 
2933.095429 4957.79411 2975.861627 4964.137575 0 
2934.086 4958.753036 2976.223627 4963.944517 0 
2933.97574 4961.026846 2975.919577 4963.945543 0 
2934.921458 4961.759574 2976.041936 4964.233094 0 
2935.064188 4963.129201 2975.83221 4964.244775 0 
1313.012046 3784.802305 2452.24185 3783.211323 0 
1333.987978 3820.112825 2452.131302 3783.104519 0 
1322.904978 3856.013185 2452.119422 3782.750406 0 
1095.057295 3914.231049 2452.137981 3782.893295 0 
1125.234086 3953.111608 2452.087812 3782.959825 0 
933.8884538 4025.757389 2452.155368 3783.059912 0 
919.7669634 4077.947304 2452.043006 3783.081152 2 
513.8265044 4219.125216 2452.075926 3783.08855 0 
1407.177521 4053.067776 2452.049873 3782.915499 1 
359.9306014 4394.931175 2451.770018 3783.085579 0 
1570.194361 4071.13944 2452.085985 3783.001656 1 
2108.12049 3907.973967 2452.144951 3783.104575 1 
2151.835575 3901.982763 2451.814401 3782.974028 1 
2103.990152 3934.219769 2451.78394 3783.007116 1 
2145.917073 3928.076946 2451.838267 3782.993577 1 
1378.952162 4332.164193 2451.832127 3782.879683 2 
2153.981969 3947.132001 2452.045182 3783.162571 1 
2047.813176 4023.0652 2451.99815 3782.757536 1 
1641.95464 4297.834135 2452.009192 3782.82513 0 
