ply
format ascii 1.0
element vertex 946
property double x
property double y
property double x_origin
property double y_origin
property int lab
end_header
8697.837558 2559.821579 9123.771876 2794.148175 0 
8707.186314 2582.165843 9123.78214 2794.042926 0 
8716.94315 2602.802249 9124.148648 2794.144951 0 
8767.808989 2639.977546 9123.987315 2793.913459 2 
8772.770789 2654.820402 9123.817044 2793.819957 0 
8779.865742 2670.042038 9124.129038 2793.883458 0 
8793.099548 2685.920762 9124.194551 2794.236865 2 
8795.147003 2698.116387 9123.806672 2794.234562 2 
8647.187965 2763.828549 9124.132736 2794.124279 0 
8615.244391 2778.164876 9123.917205 2793.937541 0 
7837.217126 2436.815854 8371.832491 2418.776114 1 
6950.0434 2511.069806 8371.939574 2419.064189 1 
7191.140208 2533.006618 8372.134146 2418.75595 1 
7178.798656 2572.013184 8371.889408 2419.148204 1 
6961.183946 2644.833959 8372.13507 2419.08095 0 
6980.200345 2687.191742 8372.065511 2419.138311 0 
6647.770291 2807.948247 8372.01259 2418.764682 2 
7227.863124 2715.179795 8371.952223 2418.830249 1 
8248.245649 2493.034714 8371.856364 2419.039049 2 
8226.85452 2511.045937 8371.853237 2419.244729 0 
8214.802555 2526.237384 8371.750679 2418.851212 0 
8219.000567 2530.890086 8372.249416 2418.934514 0 
8225.974045 2540.134486 8371.765463 2418.92439 0 
8151.076228 2640.080974 8371.812701 2419.096519 0 
8155.779222 2650.075291 8372.111201 2418.892346 0 
8160.005087 2658.813424 8371.972595 2419.000736 0 
8153.098138 2684.078959 8371.789784 2419.202658 0 
8244.874896 2583.893022 8372.197387 2418.927452 0 
8274.880405 2561.198065 8372.028663 2419.130973 2 
8281.838152 2572.02808 8371.815486 2419.062197 0 
8284.912566 2575.830949 8372.236587 2419.238794 0 
8275.161924 2608.799288 8372.085313 2419.191145 0 
8286.124579 2602.946514 8371.833491 2418.879666 0 
8303.009937 2594.056086 8372.130401 2418.858075 0 
8309.885045 2590.170186 8371.810734 2419.009941 0 
8317.813207 2585.75812 8372.187393 2418.943612 0 
8325.206186 2581.966056 8371.824585 2418.794338 0 
8331.244136 2578.890071 8372.106535 2418.906702 0 
8347.97102 2605.093121 8371.895495 2418.882944 0 
8339.14241 2943.230808 8371.824089 2419.016989 0 
8354.927322 2954.90758 8372.146655 2419.187259 2 
8372.213666 2920.027056 8371.795334 2418.848711 2 
8389.947242 3006.856068 8372.108652 2419.010449 0 
8398.864188 2846.046045 8372.204061 2418.820374 0 
8411.762101 2839.778646 8371.864712 2418.756237 0 
8423.918717 2835.221247 8371.912938 2419.139738 0 
8437.064368 2830.058434 8371.772682 2418.956778 0 
8457.039242 2866.846771 8372.223766 2419.216563 2 
8499.004351 2988.120421 8372.153822 2418.968018 0 
8557.897477 3145.199157 8372.066729 2419.094719 0 
8578.805224 3133.925381 8371.855168 2418.919413 0 
8707.221425 3450.809229 8371.989787 2419.233526 0 
8810.837875 3637.104499 8372.239763 2419.006593 2 
8786.075745 3462.902701 8371.89633 2418.890113 1 
8695.211135 3105.919012 8372.096891 2419.000376 1 
8693.015783 3051.070658 8371.96694 2418.770134 1 
8694.941079 3007.870762 8371.988152 2419.088556 0 
8710.819919 2992.80488 8371.933275 2418.875143 0 
8595.980261 2772.038442 8372.044556 2418.951686 2 
8575.097671 2717.784342 8371.935212 2419.185547 0 
8553.138841 2667.924975 8371.942139 2418.964587 0 
8538.077676 2633.088469 8372.1047 2419.038811 0 
8529.757481 2610.951591 8371.789187 2419.023264 2 
8544.772249 2605.006127 8372.043398 2418.963327 0 
8561.126889 2597.78155 8371.801883 2419.196807 0 
8568.836431 2593.985158 8371.82195 2419.066692 0 
8576.773601 2590.116506 8371.768378 2419.121272 0 
8587.150848 2586.95359 8372.056819 2419.039689 0 
8602.128565 2587.248958 8371.754276 2418.95624 0 
8612.087427 2582.108976 8372.245051 2419.094909 0 
8620.810567 2577.784238 8371.868173 2418.832816 0 
8632.040365 2573.161571 8372.046143 2418.917253 0 
8643.193122 2569.098027 8371.864061 2418.779552 0 
8653.833185 2563.936011 8372.096244 2418.856785 0 
8665.802517 2558.114621 8372.228057 2419.203365 0 
8678.818211 2553.034876 8371.993054 2419.196776 0 
8692.033834 2546.99733 8371.903016 2418.871261 -1 
8705.856306 2539.898067 8372.21617 2418.916873 2 
9174.932305 2680.834343 8371.999689 2419.22267 0 
9127.245914 2612.795832 8371.889923 2419.189035 0 
9109.143859 2584.003984 8372.218588 2419.227043 0 
8700.189995 2482.064831 8371.833829 2419.242512 1 
8685.929453 2468.811886 8372.195876 2418.997664 1 
8504.096762 2435.93893 8371.944439 2418.880595 2 
8502.18626 2432.097455 8372.001856 2418.792566 0 
8491.245522 2426.968026 8371.959439 2418.927828 2 
8489.052369 2423.209128 8371.900498 2419.048282 0 
8485.75496 2419.040421 8371.987318 2419.148819 0 
8484.794405 2415.955905 8372.125862 2419.2344 0 
8482.770736 2413.209691 8372.226912 2418.950189 0 
8480.771577 2409.172788 8372.197853 2419.118338 0 
8479.861718 2405.892292 8372.248933 2418.797978 2 
8487.239747 2401.00079 8371.840544 2419.23527 2 
8486.218816 2398.049984 8371.913097 2419.021184 2 
8490.009112 2393.063595 8371.819467 2419.014072 2 
8487.854016 2389.056784 8371.912891 2418.898421 0 
8486.76269 2385.788753 8371.882821 2418.783426 0 
8483.248444 2379.859732 8371.983615 2418.770021 0 
8480.78252 2375.931468 8372.138359 2418.894238 2 
8500.07376 2364.137293 8371.942216 2419.063507 2 
8498.888083 2360.032761 8372.048777 2418.856898 2 
8668.832744 2268.211874 8372.128083 2419.091856 0 
8667.025469 2257.197549 8371.855928 2419.129485 0 
8654.004334 2227.018819 8371.777906 2419.017023 0 
8648.057573 2217.910726 8372.050449 2419.056017 0 
8637.020458 2199.784064 8372.076038 2419.052978 2 
8543.965532 2266.964398 8372.197216 2418.789292 0 
8519.85169 2279.889433 8372.102799 2418.989773 0 
8501.172194 2289.901576 8372.096672 2418.754938 0 
8458.86345 2326.974754 8372.096794 2419.13892 1 
8466.922304 2312.202722 8372.018405 2419.176637 1 
8458.971541 2313.04631 8371.943661 2418.779114 2 
8420.207037 2358.24411 8372.085131 2418.977495 1 
8433.778174 2332.911169 8371.780473 2418.993707 1 
8421.125567 2347.22769 8372.032999 2419.227257 1 
8448.867123 2297.885798 8371.96703 2418.789316 0 
8436.037374 2310.813702 8371.794254 2419.150824 1 
8418.038456 2334.141049 8372.039743 2419.21076 1 
8424.093771 2315.808148 8372.137397 2418.815313 1 
8423.104458 2308.831058 8371.844427 2419.061495 1 
8419.825168 2308.179558 8371.78899 2418.853343 1 
8415.840727 2305.819463 8372.097049 2419.216294 1 
8408.797153 2316.880048 8372.193551 2418.914275 1 
8411.015845 2296.910582 8371.953592 2418.803219 1 
8402.974284 2309.997846 8372.204043 2418.76274 1 
8610.888895 1487.993786 8372.2235 2419.232666 0 
8400.051934 2294.110897 8371.797979 2418.906392 1 
8392.191956 2314.892405 8372.217887 2418.767124 1 
8466.821963 1815.756877 8371.870466 2418.91269 1 
8442.82634 1854.217516 8371.878984 2418.873493 1 
8427.847564 1831.822535 8372.037768 2419.113409 1 
8373.983117 2384.24136 8372.166628 2419.2074 1 
8371.989206 1401.120671 8372.22014 2419.128101 0 
8346.864457 1608.19364 8372.110768 2419.16639 0 
8322.054537 1614.158746 8371.822782 2418.996493 0 
8294.801152 1601.790669 8372.013616 2418.873115 0 
8249.797546 1453.134083 8372.035805 2418.873886 0 
8366.101599 2386.164789 8371.997379 2419.199162 1 
8366.237324 2389.785147 8372.062571 2418.970441 1 
8188.776507 1601.979199 8371.927841 2419.015713 1 
8364.84987 2395.897981 8371.893815 2418.964326 1 
8364.841621 2395.754582 8371.880716 2419.146158 1 
8351.163328 2354.953499 8371.892651 2419.21448 1 
8363.994168 2399.156267 8371.837595 2419.041714 1 
8364.04035 2399.1234 8372.165599 2418.891949 1 
8354.03819 2379.912978 8371.841111 2419.025514 1 
8350.948125 2376.153682 8372.245955 2418.974632 1 
8257.882881 2194.923797 8372.240345 2418.982751 1 
8342.071778 2366.88416 8372.197077 2419.1634 1 
8359.888742 2400.827793 8372.059558 2418.80207 1 
8360.031292 2401.202209 8371.766551 2418.77546 1 
8357.108476 2397.854146 8372.067173 2418.898827 1 
8344.227546 2381.982773 8372.040776 2419.015736 1 
8350.145751 2392.131887 8371.79125 2418.843876 1 
8343.035569 2385.787205 8372.068508 2419.16845 1 
8347.961002 2393.058853 8371.901201 2418.782781 1 
8339.193013 2383.848277 8372.19618 2418.831755 1 
8333.926071 2381.005738 8371.883825 2419.207363 1 
8331.957947 2381.900376 8372.232822 2418.816423 1 
8321.004522 2375.049996 8371.96525 2418.982068 1 
7878.782769 2010.756026 8372.247804 2419.17852 0 
8323.137912 2380.789054 8371.772396 2418.923481 1 
7380.82626 1698.090904 8371.841931 2419.037262 0 
8303.899758 2373.993131 8372.070042 2418.842771 1 
8336.091409 2397.016222 8371.924526 2418.767479 1 
8344.771961 2404.058352 8372.224842 2418.979908 1 
8308.208728 2384.207664 8372.046331 2418.963249 1 
7704.00766 2078.761581 8372.195318 2419.040429 0 
8306.767607 2389.193122 8371.968949 2419.155519 1 
8321.232176 2397.991345 8371.829 2418.808435 1 
8310.832249 2395.920931 8372.095697 2418.982007 1 
8308.164063 2396.91574 8372.074778 2419.005471 1 
7788.181962 2229.249304 8372.022951 2419.203923 1 
7760.057656 2240.997792 8371.93383 2419.016383 1 
8336.955457 2411.230161 8372.229633 2419.213117 1 
8328.241742 2410.17495 8372.003546 2418.75935 1 
7404.118072 2234.222495 8372.164869 2419.100248 2 
7462.96384 2303.243869 8372.158683 2419.046089 0 
7777.914801 2362.00438 8371.778096 2418.828863 1 
7124.17012 2378.102874 8372.084334 2419.102082 0 
8351.102178 194.8572848 8355.056005 193.9098334 2 
8351.105077 195.2398349 8355.176217 193.8105341 2 
8351.219996 195.1558497 8354.773651 194.2117386 2 
8351.0808 195.0271972 8355.221088 193.9488721 2 
8350.999692 195.1359571 8354.79912 194.2135321 2 
8351.129826 195.2078028 8355.009621 193.794627 2 
8350.962183 195.0377171 8354.87349 193.8823031 2 
8350.890591 195.2078244 8355.234385 194.2427685 2 
8350.815109 195.0403898 8354.902602 194.1701865 2 
8351.030225 194.8288187 8355.230721 194.0002209 2 
8351.234668 194.7543718 8354.961959 194.0654685 2 
8351.031569 195.9330476 8354.764341 193.7812612 2 
8350.819005 195.8134604 8355.244793 194.1988311 2 
8350.771263 196.0044146 8355.243458 193.9834463 2 
8350.792132 195.8669481 8355.115749 193.9327225 2 
8350.824772 196.1001345 8354.925491 193.8898817 2 
8350.890524 196.0780929 8354.810068 194.1707491 2 
8351.156912 195.7907887 8354.92097 194.14158 2 
8350.79516 196.1329294 8354.957049 194.0767295 2 
8350.815977 196.9713891 8355.107991 193.8849816 0 
8351.034849 198.102784 8354.833813 194.0561127 0 
8351.857199 198.8272708 8354.789559 193.8993303 0 
8351.944219 200.1553084 8355.082053 194.0189914 0 
8353.005443 200.7575438 8355.158873 194.1459673 0 
8353.085637 202.2189412 8355.066716 193.9925483 0 
8353.75973 203.2376863 8354.884128 193.8048904 0 
8355.120616 204.0911768 8355.13162 194.1865927 0 
8355.812566 205.9896105 8354.821574 194.0974154 0 
8356.842395 207.9053871 8354.903528 193.9495931 2 
8356.982658 207.9430872 8355.098923 194.1768768 2 
8357.848396 207.9309762 8354.945868 194.1038385 2 
8357.93852 207.8547413 8354.999806 193.7741567 2 
8369.823682 241.8165222 8355.016705 193.8334124 0 
8370.804209 242.1508333 8354.888303 194.1748243 0 
8372.99201 240.7699225 8355.111417 194.0545761 0 
8374.009533 240.1829914 8354.901991 194.1019275 0 
8375.838378 239.0555196 8354.801521 194.0710363 0 
8377.248607 239.1504441 8354.997913 193.8470024 0 
8377.83142 238.1937813 8355.200841 194.0199403 0 
8378.798523 236.9506467 8355.044097 193.872205 0 
8381.017169 235.8108019 8354.955617 194.0713774 0 
8382.211635 236.0939201 8354.996202 193.9536453 0 
8384.113843 234.8576186 8354.758221 193.8733757 0 
8384.79061 233.9102129 8355.225303 193.8789884 0 
8387.215732 232.7768238 8355.200025 194.2143392 0 
8388.177268 232.9479378 8354.811342 193.7586882 0 
8388.891719 231.7621825 8355.028628 193.9402416 0 
8390.962829 230.8227254 8355.062447 194.229998 0 
8392.883527 229.768064 8355.051375 193.8451625 0 
8394.111984 228.797577 8355.048808 193.9758267 0 
8395.905196 228.0570292 8355.099202 193.9458056 0 
8397.217242 228.0745056 8355.074794 194.1829746 0 
8399.101329 227.0248187 8355.147314 194.0285973 0 
8400.222757 226.2086554 8355.037286 193.8644757 0 
8402.220838 224.815914 8355.054717 193.933667 0 
8403.888639 223.8671639 8354.913665 194.0221667 0 
8405.885228 223.2150404 8355.117329 194.247212 0 
8407.762617 221.916137 8354.973039 193.917813 0 
8409.223166 219.8222411 8355.113619 194.1904084 2 
8761.146747 370.9384125 8355.123383 193.9980761 0 
8777.213231 362.0206967 8354.776673 194.1859878 0 
8793.979352 353.0639589 8354.800463 193.95019 0 
8813.129873 343.1051808 8355.133857 193.7685123 0 
8899.222345 351.797522 8355.040679 193.8575727 0 
8887.762562 330.9080081 8354.854785 193.7751797 0 
8898.074145 316.0778235 8354.942993 194.0473114 0 
8923.150065 302.8066112 8354.98772 194.0468113 0 
8952.995024 288.8611027 8354.794887 193.958255 0 
8982.131799 273.8215608 8354.894243 193.8611516 0 
8629.13552 219.9447064 8355.061342 194.0153926 0 
8624.799887 202.9451986 8355.033905 193.7722319 0 
8362.992721 193.8245838 8354.879805 194.005283 1 
8362.982592 193.9845892 8355.030463 193.8067371 1 
8362.812413 194.2234554 8355.104049 194.2124773 1 
8362.780067 193.8417683 8355.009289 194.0250904 1 
8902.952871 125.0541759 8355.233345 193.8346704 0 
8850.125737 115.8775883 8354.945822 194.0112565 0 
8366.072295 191.7571636 8354.776649 194.1221818 1 
8365.952362 192.060554 8355.144414 194.1950829 1 
8366.135138 191.7742183 8354.950366 193.8677298 1 
8578.008808 130.2308286 8354.924467 194.0712202 0 
8371.204284 188.7785155 8355.033697 194.2343506 1 
8370.870284 188.792986 8355.009441 194.0731548 1 
8372.097162 187.9927863 8355.157825 193.9728987 1 
8377.120375 184.8536473 8355.234155 193.9426693 1 
8366.860811 187.7608043 8354.814851 194.0631731 1 
8367.071358 188.2092648 8355.008256 193.9564961 1 
8367.233483 188.2086218 8355.074226 193.9922906 1 
8376.18945 181.2486928 8354.813511 194.1437344 1 
8368.777208 185.0972082 8355.128085 193.8974921 1 
8368.140194 184.8875259 8355.220647 193.9873563 1 
8368.130312 185.1284721 8355.210255 194.0006869 1 
8370.232119 183.1944101 8355.193356 193.8429303 1 
8359.205214 189.7582072 8355.156103 194.0265726 1 
8359.217472 189.9143594 8355.233069 194.2009551 1 
8358.872981 190.0572946 8354.943246 193.8124316 1 
8359.055987 190.0067564 8355.206166 194.0831957 1 
8358.853965 190.084251 8355.230688 194.2441589 1 
8359.221777 190.2013346 8354.981515 194.1020892 1 
8359.079807 189.9417701 8354.852776 194.0619261 1 
8360.88618 186.7961323 8355.154856 193.8413946 1 
8356.804339 190.0609597 8355.117967 193.7718115 1 
8357.225319 190.101036 8355.222767 193.8483003 1 
8356.908331 189.9160122 8354.910732 194.214318 1 
8357.172769 189.8668979 8355.047514 193.7767332 1 
8357.201149 190.0282014 8354.770892 194.1729258 1 
8356.979536 190.0024072 8355.025015 193.8093427 1 
8357.194177 190.1277912 8355.121269 193.8303575 1 
8357.173923 190.0261251 8354.921752 194.2282629 1 
8360.837085 176.7897193 8354.750074 193.8124039 1 
8361.140755 177.222841 8354.910704 193.7990859 1 
8360.888853 175.0714361 8354.763404 193.8116218 1 
8362.188334 168.0609175 8354.838355 194.1394828 1 
8357.839119 178.859247 8355.062409 194.0686549 1 
8358.111654 178.8374237 8355.127998 194.0558314 1 
8355.215215 188.9992663 8355.136189 194.1391383 1 
8354.775391 188.807941 8355.117401 193.8624763 1 
8354.84766 189.1174755 8354.92488 194.2384156 1 
8355.090317 189.0855845 8354.787501 194.2291697 1 
8354.907021 188.8009053 8354.790791 193.8453545 1 
8355.111823 188.8791464 8355.234837 194.2009416 1 
8354.988393 189.047246 8355.019597 193.8500475 1 
8350.13467 36.89759408 8355.155879 194.0998845 0 
8353.14686 165.0420678 8354.989023 194.1722519 1 
8353.100009 183.8564239 8354.784728 194.1976691 1 
8353.223899 183.9596085 8355.186085 194.064216 1 
8352.795193 184.2235861 8355.043386 193.9522135 1 
8352.774491 184.0841771 8355.047568 194.1363141 1 
8322.213324 47.03240522 8355.087256 193.9517169 0 
8312.829651 29.85685222 8355.051764 194.2143208 2 
8307.004446 30.95764336 8355.064205 193.9013067 0 
8302.249711 32.80322806 8354.823559 194.09972 0 
8297.909652 35.85828684 8355.047389 193.8835514 0 
8293.067895 37.98347373 8355.197767 194.1130882 0 
8287.95706 40.99115303 8354.815302 193.9815512 0 
8283.82533 43.11286961 8354.867865 193.7886537 0 
8278.895275 46.20512095 8354.990371 193.974926 0 
8273.811973 47.79213503 8354.939247 194.0664195 0 
8117.999778 9.753452146 8355.217726 193.9994896 2 
8107.80668 14.79128481 8354.84921 193.9663322 0 
8097.899572 20.14659861 8355.099884 194.217467 0 
8088.880072 25.04765091 8355.080555 194.0871322 0 
8077.788804 30.14585688 8354.818683 193.8641341 0 
8068.008726 35.93654856 8354.902788 194.1540013 0 
8199.89167 116.1431584 8354.878927 193.9536427 0 
8204.185293 124.0681742 8354.770062 193.9350718 0 
8208.071626 131.2377883 8355.184561 194.1283065 0 
8211.779073 137.7837709 8354.844639 193.9286448 0 
8215.18037 144.1945222 8354.896112 193.8104419 0 
8350.992173 194.2266669 8355.147574 194.0309771 2 
8351.122524 194.2162574 8355.145111 193.8812503 2 
8350.902806 193.797899 8354.785252 194.0444755 2 
8351.191057 193.914179 8355.248118 194.1263509 2 
8351.232353 193.7681803 8354.811423 194.0539794 2 
8350.755969 194.2459841 8354.932286 193.7850417 2 
8350.779755 194.0269246 8354.963687 194.2101246 2 
8350.971447 194.1097983 8354.770566 194.21362 2 
8351.086465 194.1681405 8354.994597 193.958989 2 
8351.134398 193.8897082 8355.090239 193.7872039 2 
6068.937607 4321.125491 6818.081679 4318.878665 0 
6054.78967 4345.079797 6817.755016 4318.772023 0 
6003.097978 4371.816438 6818.076002 4319.103946 0 
6742.812422 4326.758288 6818.138988 4318.842177 2 
6748.035213 4330.852675 6817.802302 4318.75666 0 
6750.212473 4331.822868 6818.22028 4319.048938 0 
6753.241009 4333.964877 6817.757927 4319.125407 0 
6756.104585 4336.098166 6818.162611 4318.792192 0 
6757.973657 4336.99429 6817.920857 4319.013327 0 
6759.824088 4337.925873 6818.03535 4319.172065 0 
6761.992311 4339.861353 6818.026012 4319.054733 0 
6764.869641 4340.915 6818.146911 4319.154854 0 
6766.017674 4342.199213 6818.161514 4318.980147 0 
6767.772081 4343.131794 6817.779085 4318.76309 0 
6768.846671 4343.787012 6818.138497 4319.201256 0 
6771.135179 4345.051108 6818.243448 4318.858836 0 
6772.795398 4345.914306 6818.122164 4318.869486 0 
6774.090178 4346.907514 6817.791551 4318.832489 0 
6776.018867 4348.067562 6818.137222 4319.138508 0 
6777.232562 4349.034133 6818.043362 4319.000236 0 
6778.983345 4349.954876 6818.230384 4319.005426 2 
6780.83667 4349.759469 6818.018516 4318.933341 2 
6781.796481 4349.907013 6817.884597 4319.18166 2 
6782.208121 4351.878046 6817.790497 4318.753519 2 
6775.042351 4362.16266 6817.873005 4318.882529 0 
6770.820174 4369.914556 6817.965018 4319.089041 2 
6772.232118 4370.85224 6817.977548 4319.21468 2 
6773.136373 4373.770911 6817.964917 4318.869718 0 
6774.975787 4374.9453 6818.125145 4319.062457 0 
6776.954769 4375.893661 6818.245798 4319.001251 0 
6779.050675 4376.880395 6817.932911 4319.008796 2 
6781.008441 4376.973407 6818.012315 4318.800792 2 
6569.886068 4770.13532 6817.933321 4318.956241 2 
6587.799876 4770.148339 6817.795282 4318.781994 2 
6596.750579 4790.022831 6818.246674 4319.136952 0 
6622.043741 4923.961591 6817.756671 4318.769528 0 
6647.156891 4910.131816 6818.081985 4318.86166 0 
6662.775477 4922.077783 6818.112911 4319.076152 0 
6725.208178 4907.795822 6817.834948 4318.966619 0 
6776.019229 4652.097263 6818.017411 4319.155297 0 
6785.982584 4654.200732 6817.861538 4319.032459 0 
6797.099071 4656.906821 6818.064453 4319.09965 0 
6818.179651 4991.061127 6817.986603 4318.973392 2 
6838.772718 4979.993273 6817.99292 4319.179609 0 
6854.875089 4913.824905 6817.791269 4318.900566 0 
6873.152688 4904.15418 6818.226718 4319.110866 2 
6853.200002 4599.811666 6817.827485 4318.969231 0 
6870.158929 4592.094896 6817.874528 4318.891513 0 
6878.045628 4587.986067 6818.173972 4318.894698 0 
6885.142887 4583.988425 6818.244348 4319.072539 0 
6892.799553 4579.980951 6817.795931 4318.822271 0 
6901.224224 4576.038851 6817.751879 4318.849313 0 
6908.113757 4571.793148 6817.999879 4319.016445 0 
6940.197329 4629.976598 6817.877311 4319.147331 2 
7030.038264 4808.954797 6817.866562 4318.947193 1 
7158.799693 4857.991091 6818.088706 4319.09532 1 
7299.227157 4982.012678 6818.240019 4319.120045 0 
7330.751104 4982.234367 6817.942584 4318.800657 2 
7224.965318 4810.988514 6817.872927 4318.939542 0 
7215.777366 4770.874806 6818.038855 4319.141122 0 
7170.917955 4694.788734 6817.907567 4318.865283 0 
7180.015332 4681.034879 6817.762614 4318.803596 0 
7310.239676 4701.879176 6818.000789 4318.789369 2 
7339.120267 4697.839495 6818.134689 4319.097424 0 
7337.102173 4672.124707 6817.967469 4319.103277 2 
7313.109074 4633.160053 6818.153933 4318.824392 0 
7296.898567 4602.776861 6818.013933 4318.925933 0 
7306.901667 4588.802788 6817.817055 4319.069622 0 
7337.841523 4563.974623 6818.184905 4319.106855 1 
7373.759502 4560.197519 6818.16045 4319.249177 0 
7361.826695 4534.911239 6817.788546 4319.196962 1 
7473.000734 4555.173235 6818.044386 4318.852907 2 
7658.047942 4591.761855 6818.206184 4318.907017 0 
7434.171908 4499.110117 6817.981408 4318.820475 1 
7441.136978 4479.245342 6817.996408 4318.788644 1 
7412.79813 4453.063463 6818.108266 4318.889653 1 
7469.788086 4444.043171 6818.246508 4318.797587 1 
7581.99069 4440.156958 6817.796765 4319.067386 0 
7588.818197 4416.835311 6818.014348 4319.068931 0 
7941.758546 4425.808734 6818.171838 4319.056488 0 
7703.820589 4375.128021 6818.213504 4319.242497 0 
7185.988138 4330.944913 6817.812972 4318.875116 1 
7781.940255 4319.059379 6817.91376 4318.988385 0 
7672.872842 4292.772027 6818.128038 4318.910928 0 
7662.065198 4266.124546 6817.958515 4318.805888 0 
7764.031505 4230.00528 6818.123274 4319.099702 0 
7633.090591 4215.887622 6817.918633 4319.099136 0 
7082.946356 4276.840471 6817.905624 4319.016945 1 
7089.218492 4267.869129 6818.009442 4318.95663 1 
7607.064042 4143.072414 6818.081746 4318.754296 2 
7095.881793 4248.245506 6817.992682 4319.004635 1 
7083.767533 4241.87072 6818.165563 4319.082731 1 
7067.245266 4238.874079 6818.138619 4319.026771 1 
7071.129359 4228.011893 6817.876473 4318.96995 1 
7091.149515 4211.045106 6817.819086 4318.845871 1 
7296.135576 4111.97471 6818.112816 4319.104068 0 
7289.093839 4097.872258 6817.810698 4318.90788 0 
7281.194672 4083.142444 6817.912177 4318.826465 0 
7286.137951 4062.154858 6818.0811 4319.155484 2 
7317.775578 4023.996663 6817.988215 4318.770844 2 
8413.120742 3306.876834 6818.047615 4319.000101 0 
7774.138727 3670.174087 6818.22005 4319.038242 0 
7578.969193 3765.789136 6818.134114 4318.854769 2 
7416.013846 3854.99693 6818.208837 4318.857685 0 
7239.119188 3948.769535 6818.015566 4319.063859 0 
7157.16198 4000.177742 6818.140324 4319.04993 0 
7100.082601 4036.971424 6817.955414 4319.108179 0 
7088.218087 4032.193629 6818.129023 4319.088829 0 
7046.820463 4058.926638 6817.83893 4319.20919 0 
7033.850725 4058.808981 6817.997433 4319.069918 0 
7006.848117 4074.881546 6818.174687 4319.111963 0 
6975.128476 4103.133525 6818.219649 4318.997663 0 
6958.15306 4111.985214 6817.811523 4319.06504 0 
6943.912957 4120.201846 6817.86497 4319.245557 0 
6936.92327 4118.070384 6818.103736 4318.891357 0 
6931.014013 4111.982759 6818.230186 4319.084476 2 
6908.159397 4141.819117 6818.043666 4318.760123 2 
6898.878097 4145.791099 6818.080041 4318.976214 0 
6892.922645 4146.004728 6817.838177 4318.801121 0 
6884.888253 4147.807826 6818.048784 4318.791313 0 
6878.04304 4151.110307 6818.106353 4319.205997 0 
6871.062153 4155.221323 6818.201555 4319.235423 0 
6864.041707 4159.055291 6817.876781 4318.80572 0 
6851.78805 4164.856967 6818.140197 4319.197447 0 
6845.926084 4167.933863 6818.20757 4319.054181 0 
6841.974962 4169.037611 6817.780395 4319.147607 2 
6837.792339 4161.868572 6818.198727 4318.930592 0 
6832.926398 4152.997512 6817.971905 4319.219439 0 
6828.857818 4144.828258 6818.175436 4319.169972 0 
6823.799581 4133.126991 6818.155395 4319.091288 2 
6817.932281 3966.782176 6818.147008 4318.970332 2 
6807.889143 4021.037205 6817.917779 4319.065227 2 
6799.221068 4025.875349 6817.869408 4318.94603 0 
6790.16296 4030.899803 6817.843636 4319.205299 0 
6781.018375 4027.792364 6817.885892 4319.194774 0 
6771.039875 4023.107797 6818.164212 4319.147693 0 
6759.186055 4010.089648 6818.067665 4319.235636 0 
6741.966639 3979.97306 6818.076924 4319.14892 0 
6704.005236 3875.973932 6817.869252 4319.144379 2 
6469.761137 3120.037031 6817.959606 4319.232205 0 
6409.16238 3180.079014 6817.928234 4319.07534 0 
6361.228816 3162.021871 6818.03064 4318.997192 0 
6741.064234 4157.166531 6817.941965 4318.854109 2 
5304.024328 1340.856177 6817.751803 4318.960383 0 
5872.195826 2596.069467 6817.946019 4318.912465 0 
6568.792527 3898.772943 6817.811385 4319.047763 2 
6636.996875 4034.930637 6817.942142 4319.008012 2 
6668.217668 4100.151748 6817.990217 4319.130048 0 
6677.980762 4126.168451 6817.955388 4318.959578 0 
6670.940322 4130.236028 6818.206769 4318.754556 0 
6657.152559 4136.898734 6817.858665 4318.926888 0 
6651.004912 4140.860468 6818.137271 4318.950738 0 
6504.179935 4024.83329 6818.113202 4319.222463 2 
6493.856233 4033.174587 6818.020226 4319.103108 0 
6458.855224 4023.212368 6817.86112 4318.822892 0 
6437.114116 4024.101337 6818.202941 4318.844877 0 
6626.019789 4179.908329 6818.054455 4319.210111 2 
6633.894357 4195.011225 6818.214667 4318.796916 2 
6629.159959 4199.823333 6817.973804 4318.914871 0 
6635.933801 4211.861075 6818.115609 4318.863736 0 
6641.944366 4222.978811 6817.836199 4319.050599 0 
6646.903398 4233.106425 6817.903707 4319.008623 0 
6650.068793 4240.014828 6818.081515 4318.932908 0 
6642.866165 4243.034456 6818.027786 4319.135954 0 
6628.192785 4250.832241 6818.096065 4318.837142 0 
6612.093466 4259.060732 6817.884058 4319.003425 0 
6603.134064 4264.107862 6818.168296 4318.817865 0 
6594.218937 4269.033905 6817.931601 4318.913303 0 
6583.762716 4274.017799 6818.213902 4318.916114 0 
6572.874224 4279.867609 6818.174737 4319.193017 0 
6560.132437 4287.006252 6817.875925 4319.248601 0 
6032.790708 4244.153711 6818.134555 4319.233493 0 
6047.235951 4269.98062 6817.820634 4319.079417 0 
6060.791351 4294.954692 6817.832842 4319.175415 0 
6989.812554 38.75113757 7266.24328 37.78149109 0 
6995.035042 46.92488096 7265.944794 38.0477579 0 
6996.19268 55.90869571 7266.213872 37.81690444 0 
6993.026305 65.13860915 7265.759921 37.90874128 0 
6962.894861 76.88584605 7265.907343 37.93556942 0 
6936.789557 90.79189767 7265.919062 37.77550808 0 
6907.022517 106.9896963 7266.104925 38.06386848 0 
6870.194388 127.1877668 7265.989284 37.7569423 0 
6839.188904 148.9825642 7265.788433 37.97394654 0 
6845.157445 160.9832273 7265.771704 38.10012557 0 
6855.141923 172.2355765 7266.16703 37.91822775 0 
6856.124186 186.1769511 7266.076969 37.76904712 0 
6737.812797 248.2343117 7265.954617 37.85235378 2 
6714.776209 278.1236786 7265.877862 38.04872658 2 
6664.863375 322.2327869 7265.862595 37.80776326 2 
6673.170554 341.101879 7265.814706 38.10945808 2 
6637.834443 383.8531389 7265.833405 38.24188846 0 
6710.086366 367.8551091 7266.092014 37.97828926 2 
6963.840686 231.009044 7266.146517 38.21487132 0 
7042.935995 189.973486 7266.233918 37.99879227 2 
7045.957798 197.938535 7266.101146 37.98400707 0 
7049.812214 206.2290079 7265.782734 37.92558848 0 
7054.211795 212.8953287 7265.983352 38.13234855 0 
7229.247208 71.04805729 7265.991807 37.831651 1 
7063.151196 230.0752113 7265.823539 37.98756247 0 
7068.18032 237.1655535 7266.215852 37.77100594 2 
7222.924598 84.11236874 7266.235877 38.11059268 1 
7225.835855 83.2197957 7265.859385 38.04365249 1 
7230.908331 80.21053101 7265.77766 37.97054424 1 
7235.189539 78.81039322 7266.146133 38.15133375 1 
6943.955722 482.8794845 7266.033682 37.95292967 1 
7244.177542 69.77548894 7266.034581 38.07873798 1 
7243.1007 73.10812014 7265.8163 38.03102053 1 
7106.023674 328.7821522 7266.052026 38.19827119 2 
7241.144521 87.03790374 7266.058864 38.23037569 1 
7252.007699 70.16824883 7266.024028 38.1660301 1 
7239.12878 104.0516877 7265.886574 38.06831876 1 
7244.112081 96.78270705 7265.969653 37.81780289 1 
7253.912191 74.75333481 7266.020733 37.83973324 1 
7253.778824 78.80531323 7266.168471 38.12952395 1 
7256.163433 75.23477167 7265.910544 37.93710701 1 
7258.766924 67.21257096 7265.885378 38.16144477 1 
7255.000475 93.19424207 7266.14182 37.75817413 1 
7257.112491 88.91584864 7266.174204 37.99127073 1 
7258.217536 94.81077856 7265.809589 38.07961734 1 
7261.843486 78.029242 7266.14742 38.0056771 1 
7263.032577 77.91815278 7266.09541 38.06140057 1 
7263.973466 97.01388157 7265.940925 37.88689938 1 
7265.998653 603.101469 7266.074006 38.0155771 0 
7284.06404 615.2093846 7265.927022 37.81451466 0 
7304.153627 643.8188423 7265.822689 38.01611754 2 
7270.984691 92.24689301 7265.757388 37.95222735 1 
7416.807672 1230.816978 7265.781845 37.90115717 0 
7277.09622 110.1792649 7266.156834 37.87879658 1 
7276.847418 97.00224462 7266.190197 38.0708837 1 
7526.766126 1206.881122 7266.207783 38.01477943 1 
7282.232591 102.0317895 7265.780357 38.04663064 1 
7367.991174 388.9573784 7266.111145 37.89480068 0 
7275.026221 67.18383409 7266.160918 37.76091169 1 
7388.180727 379.1683065 7265.963139 38.23839867 0 
7398.235284 372.9949837 7265.889556 38.08150401 0 
7407.924249 367.7963901 7266.210301 38.02166632 0 
7282.048635 73.15049774 7265.84255 38.06476093 1 
7427.781619 356.8003331 7265.82954 37.76421009 0 
7284.082123 72.85989689 7266.060841 37.8232966 1 
7294.067275 86.92198604 7265.968097 37.84349601 1 
7457.85582 341.8790155 7265.854408 37.78654723 0 
7467.797322 336.0675467 7265.774946 37.78260623 0 
7477.81253 330.9145018 7266.11411 37.98677907 0 
7487.960892 326.0744108 7265.758445 37.75952662 0 
7497.974909 319.8509954 7266.074288 38.00652797 0 
7508.901329 314.1538279 7266.020738 38.23345107 0 
7518.763725 308.8315788 7265.806748 38.0810001 0 
7530.003565 303.024845 7266.174496 38.10938496 0 
7541.15386 296.7789038 7266.145932 38.20118243 0 
7553.096451 291.1708781 7266.233789 38.15898098 0 
7563.83538 285.0978989 7265.89576 38.04627173 0 
7574.92231 278.9042054 7266.055798 38.14721828 0 
7588.005201 271.8800859 7265.903746 38.15652935 0 
7599.783914 266.1744843 7266.13998 37.79763861 0 
7612.756063 259.1967281 7266.128639 38.00962793 0 
7625.971573 252.0531348 7265.869013 37.87543351 0 
7640.082039 244.7649451 7265.826616 37.92848916 0 
7656.185823 237.8104046 7265.83747 37.77120303 0 
7801.158303 289.9832302 7266.067475 37.83061322 0 
7772.137436 257.8732731 7266.227832 37.89263647 1 
7758.003359 232.8815778 7265.799166 38.0372728 1 
7784.806062 226.1891463 7266.084911 37.81212516 1 
7826.135874 219.9635501 7266.071753 37.8574474 0 
7791.766685 192.190766 7265.982881 38.09872357 1 
7799.205711 175.0594968 7265.777213 38.14153422 1 
7766.119901 149.8646829 7266.162737 38.02820495 0 
7756.097913 131.980212 7266.108818 37.98534869 0 
7747.103485 115.0866497 7266.127985 37.8568441 0 
7739.218227 98.17715099 7266.144117 37.77428948 0 
7730.116297 81.9790283 7265.836415 38.00217159 0 
7722.192578 67.15816773 7266.109619 38.20926336 0 
7715.098934 52.8424999 7266.057987 38.05464474 0 
7707.151997 38.08519966 7265.946179 38.0218982 0 
7701.199883 24.85891621 7265.800103 38.0477956 0 
7694.089128 12.15892131 7265.783144 37.94261332 0 
6974.995571 11.16112946 7266.049457 37.96379839 0 
6980.08828 19.94357431 7265.988088 37.95457769 0 
6985.172603 29.07450252 7266.206749 38.11518104 0 
6869.98267 4156.066368 7366.074444 4154.831604 0 
6626.158868 4179.882431 7366.136249 4155.060865 2 
6631.217631 4202.832428 7365.832763 4155.167514 0 
6642.941344 4224.882866 7365.965309 4154.780472 0 
6631.791788 4248.998453 7365.973085 4155.037359 0 
5768.909583 4461.772543 7365.751157 4155.247863 0 
6285.966117 4397.989245 7365.952441 4154.88872 0 
7105.813747 4222.90919 7365.753901 4155.046418 1 
7078.225559 4239.078345 7366.128022 4155.134427 1 
7099.210777 4243.01427 7365.945292 4155.178408 1 
7102.096698 4251.028055 7366.095921 4154.788042 1 
7127.160921 4250.81123 7365.818514 4155.202709 1 
7095.059684 4273.041599 7365.990067 4155.219266 1 
7115.064142 4273.991224 7366.21713 4154.780259 1 
6036.230469 4887.919571 7365.918979 4154.794216 0 
6275.078761 4801.92288 7366.090634 4155.05432 1 
6609.751225 4635.968655 7365.938746 4155.212001 1 
6130.232926 4998.134038 7366.140409 4155.079624 2 
6470.912093 4806.98633 7366.117665 4154.823014 2 
6581.04756 4766.186179 7365.775723 4154.857244 2 
6597.977778 4792.01579 7365.82651 4154.79192 0 
6876.757014 4587.79364 7365.82218 4155.237483 0 
6913.963211 4579.991159 7365.7817 4154.791972 0 
7194.164038 4327.122334 7366.096292 4155.165263 1 
6932.840989 4616.785038 7366.127265 4154.823915 0 
6729.169076 4979.017674 7366.153538 4154.831169 0 
6896.754004 4847.021204 7365.904184 4155.051564 0 
6948.957383 4860.929906 7366.158808 4155.185161 0 
6964.195696 4888.235318 7366.227082 4155.202711 0 
7034.778958 4804.799261 7366.190194 4154.992169 1 
7051.04042 4827.221893 7366.034141 4154.954458 1 
7176.094227 4682.880433 7365.869722 4155.185216 0 
7196.915471 4677.246986 7365.759131 4154.834548 0 
7218.01466 4666.162669 7365.915717 4155.018664 0 
7237.933872 4655.0699 7365.820228 4155.141255 2 
7250.249807 4677.229036 7366.076416 4155.195503 0 
7254.214354 4740.053498 7366.148214 4155.243312 0 
7296.102759 4595.088408 7365.985482 4154.893179 2 
7311.060301 4586.769623 7366.097637 4154.904528 0 
7325.900056 4580.217358 7365.839744 4155.065527 0 
7341.214345 4546.848875 7366.150074 4154.979005 1 
7352.761543 4553.815791 7366.247669 4154.945416 1 
7366.135692 4538.817897 7365.836671 4155.135499 1 
7377.796933 4540.163087 7366.081002 4154.761288 0 
7389.966585 4539.979215 7365.7546 4154.819344 0 
7401.817623 4542.990082 7365.962523 4155.127924 0 
7415.009704 4544.81016 7365.782452 4155.15976 0 
7412.777518 4452.872196 7365.975286 4155.241863 1 
7419.97107 4440.875361 7365.970868 4154.982614 1 
7437.941152 4479.968537 7366.17803 4154.826844 1 
7441.036434 4447.764701 7366.212342 4155.083368 1 
7446.177788 4431.043344 7366.094655 4154.894373 1 
7457.772559 4439.099255 7365.963717 4154.840182 1 
7469.839337 4444.17624 7366.218106 4155.099041 1 
7486.236399 4460.750558 7366.008801 4154.763917 0 
7498.872754 4465.234087 7365.75578 4155.093825 0 
7511.859448 4466.976649 7365.826438 4155.0506 0 
7525.195186 4468.754468 7366.127444 4154.98162 0 
7736.769169 4831.089786 7365.814988 4155.196957 0 
7672.88313 4674.159643 7365.84133 4154.905689 1 
7574.008899 4484.055047 7365.995871 4155.098236 0 
7582.981286 4474.963978 7365.947277 4154.967686 0 
7578.964536 4450.206077 7365.981603 4155.08729 0 
7591.190165 4409.987383 7365.931115 4154.799613 0 
7600.214032 4406.007554 7366.100213 4155.159218 0 
7622.012022 4411.977656 7365.890838 4155.03119 0 
7645.817442 4418.955826 7365.978147 4154.950571 0 
7672.865469 4427.069477 7366.10626 4155.124368 0 
7781.874523 4498.852132 7365.972604 4155.10581 2 
7778.066109 4475.16988 7365.823495 4154.780646 0 
7789.125958 4463.055098 7366.117936 4155.066123 0 
7700.792481 4382.799051 7366.115735 4154.756513 0 
7387.056604 4168.965948 7366.165731 4154.818626 1 
7387.193604 4168.806569 7366.099817 4154.761046 1 
7715.012395 4346.827964 7365.961617 4155.127864 0 
7398.147441 4171.817878 7366.002232 4154.771964 1 
7407.920009 4176.224835 7366.127774 4155.236119 1 
7389.144716 4165.201269 7365.766764 4155.020674 1 
7389.006367 4165.1347 7365.836796 4155.048848 1 
7400.183751 4168.202531 7366.055362 4154.990355 1 
7391.918479 4163.971093 7366.058982 4154.862083 1 
7389.027661 4161.908798 7365.873129 4154.790056 1 
7388.986762 4162.084746 7366.16792 4154.884202 1 
7394.152624 4161.920151 7365.906166 4154.822633 1 
7391.894987 4159.78394 7365.808752 4154.789703 1 
7387.235209 4158.825516 7366.060376 4154.991575 1 
7417.210216 4162.147172 7365.790424 4155.143967 1 
7393.099704 4158.095785 7365.884322 4154.768183 1 
7398.816878 4158.193304 7365.880266 4155.09454 1 
7384.852102 4156.003395 7366.134595 4155.088864 1 
7403.838142 4155.052515 7366.223066 4155.240766 1 
7410.222667 4153.879232 7365.813399 4154.867653 1 
7391.913172 4153.872151 7365.907356 4154.898381 1 
7392.947667 4153.217732 7366.139956 4154.907883 1 
7401.114904 4151.18038 7365.80185 4154.964608 1 
7403.026165 4148.936172 7365.982791 4155.093043 1 
7396.879476 4149.113057 7365.937583 4154.981578 1 
7393.866452 4148.822178 7365.820442 4154.954594 1 
7394.124694 4147.793508 7365.945359 4155.09736 1 
7405.922741 4144.008758 7366.215014 4155.085913 1 
7381.130909 4149.87237 7366.234293 4154.828575 1 
7380.840102 4150.12425 7365.986458 4155.205006 1 
7381.054629 4150.038308 7365.919613 4154.830795 1 
7397.22448 4142.152404 7366.173838 4154.853956 1 
7394.015461 4141.861421 7366.085534 4155.131913 1 
7411.9336 4132.155976 7365.836506 4154.808293 1 
8580.199484 3489.031866 7366.155653 4154.872225 2 
7391.790624 4140.120667 7366.208137 4155.171533 1 
7616.243037 3996.192431 7365.750108 4154.833138 2 
7611.06668 3988.986566 7365.788144 4154.87131 2 
7391.774874 4135.957757 7365.952105 4155.249353 1 
7728.860161 3873.875943 7365.853309 4155.125622 0 
7711.987364 3869.188843 7366.007535 4155.170963 0 
7657.094819 3899.094041 7366.229257 4155.044303 0 
7381.875907 4140.13491 7366.166528 4154.916531 1 
7382.005577 4140.124666 7365.838063 4154.998614 1 
7531.067096 3966.838171 7366.081752 4154.883777 0 
7521.074737 3967.119896 7366.005087 4155.099611 0 
7507.827653 3971.207191 7366.098964 4154.937814 0 
7493.833134 3978.202273 7365.813436 4155.070498 2 
7458.141116 4000.070971 7365.991462 4154.985935 2 
7453.915012 3993.970718 7365.780239 4155.040919 0 
7446.855628 3995.196767 7366.20745 4155.111205 0 
7439.071432 3998.795513 7365.859819 4154.888529 2 
7423.883684 4019.191571 7366.022306 4155.208421 0 
7418.061466 4021.777392 7366.058032 4155.139119 0 
7412.234584 4024.906996 7365.826933 4154.817718 0 
7406.859269 4027.890369 7366.138216 4154.750385 0 
7401.211341 4031.879678 7365.98632 4154.876353 0 
7396.100396 4035.016559 7366.167272 4155.206025 0 
7387.963326 4037.124722 7366.06723 4154.784758 0 
7385.170235 4031.177049 7365.923287 4154.80392 0 
7382.118619 4026.195593 7365.762341 4154.930085 0 
7378.222985 4019.070373 7365.819204 4155.207569 0 
7385.227368 3854.896138 7365.775287 4154.836637 0 
7370.036507 4030.163503 7365.837022 4154.997847 0 
7365.793181 4032.073342 7366.1242 4155.143577 0 
7360.839901 4078.041472 7366.099602 4155.053227 2 
7357.916194 4078.916832 7366.087985 4154.83643 2 
7355.84388 4077.761272 7365.890349 4155.2125 0 
7353.206864 4077.90269 7365.892585 4155.179849 0 
7351.223063 4076.961789 7366.137418 4155.200431 0 
7348.107927 4076.162704 7365.787068 4154.894434 0 
7345.076207 4074.87409 7366.142281 4155.119388 0 
7342.197432 4075.016482 7366.012965 4154.787333 2 
7331.807954 4050.862567 7366.09056 4154.974148 2 
7322.029398 4032.928545 7366.060578 4155.123279 0 
7271.939816 3938.200927 7366.085778 4154.896681 0 
7264.853617 3942.228363 7365.82653 4154.826679 0 
7259.940153 3947.213948 7365.777111 4154.798079 0 
7252.126653 3948.814179 7365.942513 4154.95286 0 
7245.938269 3951.834794 7365.822248 4154.885701 0 
7214.101276 3915.085213 7365.923034 4155.15923 2 
7354.197779 4138.763593 7365.883378 4154.977178 1 
7353.942138 4139.193956 7365.850456 4155.131955 1 
7352.144883 4139.186234 7365.778635 4155.2485 1 
7352.164598 4138.855166 7365.825179 4154.85475 1 
7350.819114 4138.85229 7365.902829 4155.195767 1 
7350.916469 4139.095343 7365.898626 4155.104737 1 
7303.180137 4092.970874 7366.240438 4155.031413 0 
7347.806087 4138.913472 7365.940643 4154.753866 1 
7353.927065 4146.074022 7365.981044 4155.119203 1 
7354.017978 4146.0815 7366.001158 4154.912861 1 
7354.017735 4146.029794 7365.911361 4154.932332 1 
7353.134959 4146.98654 7366.037082 4155.204073 1 
7353.08883 4147.189912 7366.14984 4154.755299 1 
7353.035254 4146.798466 7366.110036 4154.965391 1 
7352.019341 4147.100475 7366.246805 4155.075428 1 
7352.763947 4148.937448 7366.079294 4154.941012 1 
7352.761469 4148.810338 7365.810215 4155.029447 1 
7353.141839 4149.061374 7366.192308 4154.909573 1 
7348.841167 4148.853669 7366.091905 4155.226126 1 
7349.090209 4148.878988 7366.1802 4154.92904 1 
7348.818899 4149.080039 7365.934339 4155.104153 1 
7346.128506 4148.794375 7365.819545 4154.897846 1 
7345.144849 4149.816349 7366.223274 4155.158796 1 
7345.003797 4150.052568 7365.849808 4155.015266 1 
7345.112907 4150.910023 7365.794713 4155.004745 1 
7345.221397 4151.237021 7366.164319 4154.812564 1 
7348.84069 4153.006224 7365.78869 4155.1809 1 
7349.135212 4153.21889 7365.859939 4155.204111 1 
6951.048929 4116.044278 7366.058264 4154.927435 0 
6908.088653 4140.127809 7366.075282 4154.983502 2 
6311.194159 434.0485557 6396.892298 432.9479556 0 
6311.851124 435.9921058 6397.213222 433.2140305 0 
6313.152129 438.7579353 6396.968776 433.1235262 0 
6314.244957 440.8830942 6397.18609 432.8356471 0 
6316.139318 444.2247804 6396.766547 433.0245299 0 
6319.19367 445.8764859 6396.978641 432.9925996 2 
6319.170764 447.7869052 6397.170035 433.0094161 2 
6312.164714 451.9953163 6397.242918 433.108873 0 
6269.793872 465.885216 6396.806829 432.8949959 2 
6270.127322 469.7700505 6396.859026 433.0294511 2 
6252.777986 480.0778022 6396.902977 432.7729425 0 
6089.210896 544.8390674 6396.85859 433.1002146 2 
6280.813848 478.8751362 6396.874745 432.757518 2 
6282.001622 483.1033853 6397.000118 432.9223857 0 
6284.140291 485.9201523 6397.181802 433.0550049 0 
6286.165469 490.1747199 6396.913878 433.2093406 0 
6287.809936 492.9707065 6396.854336 433.1872579 0 
6289.990757 496.9633629 6396.966709 433.0187427 0 
6290.791165 500.1196863 6397.041685 432.7520615 0 
6294.208754 504.1502748 6397.102276 432.7726014 0 
6294.775411 507.2270206 6396.780119 433.0270331 0 
6297.080406 510.0302371 6397.199419 432.9706964 0 
6299.200389 514.1312205 6396.775701 433.115858 0 
6301.05594 516.9395793 6397.075199 433.1158764 0 
6303.160286 521.1795351 6397.053134 432.9010428 0 
6306.892898 523.7698433 6397.169786 432.9340631 2 
6290.13953 547.9614707 6396.936125 433.0982833 0 
6302.861745 539.7884007 6397.120885 432.8871564 2 
6304.765421 544.1510041 6397.164189 433.0958272 0 
6307.931241 549.1136082 6396.816524 432.8816306 0 
6333.994829 519.842225 6397.247489 432.8007692 2 
6342.031804 515.0726872 6397.166646 432.9420901 2 
6343.002222 516.96978 6397.093133 433.1451204 2 
6344.989623 521.0129184 6396.829183 432.8791529 0 
6348.224389 523.0153081 6397.227436 432.8361345 2 
6332.053709 559.0983208 6396.973291 433.0691301 2 
6335.999325 560.8874805 6396.914957 433.1805662 2 
6338.751089 567.9814809 6396.812197 432.9959175 2 
6333.073706 595.8096854 6397.046687 432.8555101 0 
6341.132373 587.9633324 6397.0476 432.884595 1 
6345.183112 593.8907331 6396.779715 432.9227357 1 
6352.153651 588.8588989 6397.051889 433.1280405 1 
6355.124207 595.0293247 6397.214175 432.9279157 1 
6358.877646 600.9374661 6397.247046 433.1269705 1 
6361.074947 622.912003 6397.057537 433.0760353 0 
6366.143484 630.1197335 6396.821953 432.9671897 2 
6374.179419 615.1186394 6397.0727 433.0617915 0 
6379.831972 610.8703001 6397.196386 432.7650842 0 
6386.011033 607.2261019 6396.93782 432.9146846 0 
6390.835001 604.2397085 6396.792725 433.2092077 0 
6397.019033 597.7569002 6396.887123 433.1466788 0 
6397.944366 469.8841691 6397.023649 432.7693128 2 
6399.046172 469.831186 6397.095348 432.9396559 2 
6400.200919 470.1673008 6397.156846 433.1303383 2 
6401.03594 469.9795455 6396.94213 433.117912 2 
6402.099846 468.8885163 6397.132996 432.8608788 0 
6402.864618 468.8208162 6397.025563 432.949619 0 
6403.810525 469.0682885 6396.908827 433.0795578 0 
6405.075189 468.04595 6396.976237 432.769555 0 
6406.180119 468.2498859 6396.788868 432.9762911 0 
6406.831072 467.1342158 6397.165947 432.7819914 0 
6408.051517 467.0727926 6397.16233 432.8374568 0 
6408.802338 465.8544596 6397.205369 433.1521837 0 
6409.992976 466.0883651 6396.763062 433.1075941 0 
6412.159181 465.0386259 6396.807213 433.2197059 0 
6413.856914 463.9660397 6397.049264 433.1821032 0 
6415.76199 462.7755004 6397.201658 433.1921087 2 
6415.775386 462.240526 6396.9184 432.8564581 2 
6417.124742 461.8343467 6396.888449 432.9262584 2 
6418.157139 461.8007792 6397.013715 433.2094774 2 
6437.905239 482.9690841 6397.111661 433.1482147 0 
6432.807449 474.1247236 6397.005809 433.2166305 0 
6430.913349 470.0630219 6397.186336 433.020264 0 
6429.779062 465.9856001 6396.952367 432.7910513 2 
6430.0111 464.9040254 6397.23316 433.0364867 2 
6431.894551 464.9015598 6397.142945 432.7692931 2 
6433.985907 463.7813943 6396.945552 432.8930458 0 
6434.832174 464.2092667 6396.852523 432.9874123 0 
6435.928351 463.2141843 6396.885627 432.9857999 0 
6438.088908 462.1414358 6396.95243 432.7522574 0 
6438.954458 460.8887668 6397.022521 432.9835193 0 
6441.124367 460.2248885 6397.024571 432.8854674 0 
6442.878914 459.0077307 6397.171954 433.0234652 0 
6445.15929 458.064899 6397.042758 432.895197 0 
6447.096293 457.2383099 6397.038243 433.1784668 0 
6449.197577 456.1407661 6396.915879 432.8759273 0 
6450.10495 455.0515061 6397.111727 432.9438583 0 
6451.942942 453.8141576 6396.946116 433.1473996 0 
6454.952924 453.2186371 6396.880919 432.8272913 0 
6458.193526 451.1554895 6396.962759 432.8224396 0 
6459.91322 449.8847128 6397.095905 432.8225107 0 
6463.199612 447.8886632 6396.967708 433.0459051 0 
6464.876973 446.7559505 6396.974372 432.8245497 0 
6469.146717 445.1402511 6396.950477 433.0016671 0 
6472.941757 442.8122043 6397.195525 433.1346992 0 
6475.876362 440.8916412 6397.032099 433.0792863 0 
6479.860278 439.1630177 6397.156578 432.803804 0 
6486.068507 435.8693363 6396.876244 433.2317274 0 
6491.004049 433.2221485 6396.804238 432.953661 0 
6496.860812 430.0219458 6397.249566 432.9877847 0 
6503.027896 426.973938 6397.062334 432.924613 0 
6460.864189 426.7628114 6397.17628 433.0559463 0 
6454.825016 426.1218055 6396.940645 432.9513776 0 
6453.763447 424.2227443 6396.780664 432.873725 0 
6454.135762 423.1872415 6396.927529 432.9542692 0 
6452.806578 421.0537726 6396.935997 433.060627 0 
6452.025921 418.9902347 6396.764288 433.1367328 0 
6450.76218 417.763854 6396.874518 433.0400768 0 
6449.987792 416.1868519 6397.21469 433.1019811 0 
6449.199663 414.1409698 6396.907927 432.774679 0 
6449.012775 413.098573 6396.976057 433.0262219 0 
6447.071317 411.0067204 6397.149947 432.9570791 0 
6446.943962 409.8274759 6397.161348 433.0005397 0 
6445.131249 408.8473449 6396.811167 432.9071696 2 
6441.08758 408.8254547 6396.793902 433.0997601 2 
6439.839309 406.9184199 6396.889837 433.0771008 0 
6439.855272 405.8545266 6396.929082 432.8049352 0 
6439.245496 405.0870094 6396.829614 433.0082717 0 
6437.935582 403.0556706 6396.784494 432.7568995 0 
6437.812391 402.1844404 6396.963979 433.0063529 0 
6435.761916 399.875327 6396.756893 433.1431648 0 
6435.972672 398.8180593 6396.800334 432.8102515 0 
6434.893514 397.8442368 6397.160012 432.9828227 0 
6434.012657 395.7998484 6396.809923 433.1179286 0 
6432.904375 393.9890053 6397.172864 432.8998715 0 
6432.826015 392.7524779 6397.158143 433.011597 0 
6431.058149 391.1926367 6397.018497 433.1205396 2 
6431.127077 390.2324753 6396.876892 433.1389935 2 
6462.857802 340.883785 6397.032158 433.0804742 0 
6456.951844 344.0824927 6397.140726 433.0953583 0 
6451.17673 347.0507373 6396.828181 432.9393863 0 
6446.100586 349.8881044 6396.807315 432.7549608 0 
6441.12711 353.2301787 6396.904832 433.2031244 0 
6436.232657 354.8129754 6396.964721 433.0408051 0 
6431.755612 357.233218 6396.911345 433.1326893 0 
6428.215693 360.0382371 6397.021683 432.8234956 0 
6425.172022 360.803841 6397.15397 432.8738664 0 
6422.136334 362.0446955 6397.219225 433.0630632 2 
6420.845433 359.7974057 6396.75245 433.1960185 0 
6415.93551 364.8097644 6397.200979 432.8126197 0 
6413.789943 365.8558115 6396.765744 432.7725996 0 
6410.918787 366.9804655 6397.063405 432.9243991 0 
6408.963684 368.2247493 6396.807088 432.9293769 0 
6407.012986 369.0787711 6397.002872 432.9350086 0 
6404.132612 370.9068423 6397.058875 433.0189458 0 
6402.201538 372.0280997 6396.832009 432.7969705 0 
