ply
format ascii 1.0
comment https://github.com/SintefRaufossManufacturing/convertcloud
element vertex 544
property float64 x
property float64 y
property float64 z
property float64 x_origin
property float64 y_origin
property float64 z_origin
end_header
2.15538239479 -16.3169345856 -18.0082263947 1.39090238512 -19.9152881503 -14.6218677759
-3.08817195892 -6.77460098267 -8.04892063141 -2.09607298672 -11.4912211299 -6.71879559755
7.79708385468 15.9113702774 -22.2019271851 7.56478386 16.0002547819 -17.2081171274
6.22712755203 -15.7557077408 -22.5888824463 2.00535947084 -18.3393557072 -23.2970069349
12.5295143127 9.39126300812 -25.8370265961 12.552172313 9.32051900961 -30.8364746571
23.2989177704 -1.21870338917 -6.76784610748 20.7372862697 -0.266547873616 -2.5807890892
19.3097743988 1.32866895199 -9.11472797394 19.6478928849 5.47152137756 -6.33579850197
-0.0266169998795 11.5433273315 -25.9211902618 0.0106509998441 11.4470093269 -30.9201236367
-19.1402015686 23.9995861053 -23.5846881866 -22.1805835366 27.9682162404 -23.6624866882
-9.42890834808 -19.3115310669 -21.5281429291 -9.76512384415 -19.8556690589 -16.5692245364
-26.9092311859 17.8389492035 -23.3018569946 -30.0829147696 21.6828587055 -23.6918475032
-23.2869300842 20.6160430908 -24.7858409882 -26.3774279356 24.5247374773 -25.1992809698
-28.4641971588 -15.2344102859 -23.1131534576 -33.1268512607 -17.0363507867 -23.2257014532
-7.46621465683 -19.272611618 -21.9319763184 -4.62542003393 -23.1333606243 -20.5091253817
6.82645654678 -9.89304065704 -25.1295642853 6.78671704512 -10.0536491536 -30.1268263459
-13.232380867 -4.80192279816 4.02126741409 -8.95992141962 -7.37128144503 4.40137793124
-12.9563369751 2.50961279869 -6.01725053787 -12.0519964546 7.3379612565 -5.08493152261
13.7767972946 3.1452767849 -20.7129459381 18.4352316856 4.85364231467 -20.0961169526
11.7228918076 -4.36351776123 -9.96716880798 13.4707293212 -8.70062172413 -8.196690768
-6.5975728035 -16.786441803 -17.959236145 -5.29057079554 -21.2444347143 -16.110440582
-1.06026244164 20.9063930511 -22.4673480988 -1.07936644158 20.8581305509 -17.4676175117
-27.7261123657 -9.69462776184 19.6695995331 -31.1774898171 -13.2901137471 20.0701890513
-5.49663209915 -9.43894958496 -13.2001209259 -3.74187061191 -10.4208151102 -8.62226635218
20.613363266 -18.9301490784 -25.0411777496 20.4989197683 -19.0671505779 -30.0379903913
-13.3056840897 2.46258831024 -11.2856683731 -12.8894340843 4.61068680882 -6.78984737396
-3.41517567635 2.9554400444 -3.09611773491 -2.39344321191 6.23152410984 0.540272831917
-28.1656341553 3.86598658562 -4.43869972229 -27.4488426298 8.05161011219 -1.7992361784
17.5869503021 4.59958124161 -21.7345848083 17.414809797 4.74128574319 -16.7395582199
-18.6579360962 7.67900657654 -25.8275127411 -18.6465805965 7.4901490733 -30.823931694
-22.2442741394 -10.2806396484 5.63302659988 -23.3220011443 -14.5481665134 3.26095604897
5.56847858429 -17.3470249176 -20.8901805878 4.63446255028 -21.9736793041 -22.539933145
-18.0638790131 0.85163551569 -9.19476222992 -15.6541410089 3.19859448075 -5.49544525146
-7.22275781631 -16.1494121552 -16.0122642517 -4.74263983965 -19.8341745734 -13.716280818
-24.1146259308 4.94976234436 -2.78623318672 -25.6824294031 7.30645430088 1.33541637659
-30.4806842804 -1.80632579327 -6.02013969421 -30.9988022745 -4.69629126787 -1.97296106815
-11.8361473083 -10.5576934814 -3.67792248726 -9.29259479046 -12.8466794789 -0.0322559475899
-30.8632564545 -3.4674050808 -15.4635829926 -34.1513934731 -7.19538146257 -16.0024190024
17.1243686676 -15.8842306137 -22.0334758759 17.8522576839 -16.3706576005 -17.1107157469
17.0743980408 8.71436309814 -21.8542881012 17.0595570407 8.7731310986 -16.8546555638
-27.2538528442 -19.0553207397 -25.2382602692 -28.8967402875 -19.664597258 -29.921176374
-2.96451020241 -8.0973110199 -13.8686466217 -1.11939269304 -9.06320555508 -9.32303458452
-4.42567253113 14.4430685043 -15.5218601227 -7.85188698769 17.052064538 -12.9813495278
3.11896538734 16.4417438507 -15.5229682922 4.39793786407 21.2643064857 -15.1956747919
-21.464263916 -1.79810321331 12.934135437 -21.0140729025 3.14213180542 13.5597599447
27.60505867 -5.25023698807 -21.3484840393 28.6068286449 -5.29818398878 -16.450101018
-19.1732387543 17.0886077881 -25.9576625824 -19.1739297543 17.1380222877 -30.9574185014
-0.437641888857 -9.13782978058 -25.0810394287 -0.469915389549 -9.32364077866 -30.0774813294
-23.0775585175 -11.4255990982 15.1428403854 -21.242064029 -14.856102705 18.2833185196
8.33738613129 10.0021400452 -16.5086860657 11.493900001 10.2501610443 -12.6389442086
-29.7749481201 -3.718978405 -25.4931755066 -29.7339996221 -3.85550090671 -30.4911435843
-25.9348831177 -3.55085015297 19.9801158905 -25.3844951317 0.775548815727 22.4253854156
-22.1096878052 -12.4397001266 13.5150308609 -22.4472993165 -17.4162191749 13.8618398532
8.07973003387 16.876832962 -25.7524051666 10.1671329737 20.3930793405 -28.6296882629
25.7079372406 -0.471322894096 -7.46932220459 25.9362057447 3.50784474611 -4.4503621459
-2.92413949966 -17.0657844543 -21.4220790863 -1.77270852029 -20.2446119189 -17.7384309769
19.9509525299 6.94498252869 -25.7385902405 21.1593285203 7.28881251812 -30.5781777501
-2.99713230133 -2.03342056274 -2.42218375206 -1.44654130936 -6.05645215511 0.109788775444
-1.37468004227 -5.39970970154 -25.2311267853 -1.38164604234 -5.59607319906 -30.2272647023
-1.10757875443 -3.30859851837 -25.3202705383 -1.15584125463 -3.52061451226 -30.3155406117
-15.0614309311 -8.01109981537 3.15460181236 -11.349734962 -11.1385358572 4.35562482476
24.116230011 -0.893981575966 -13.4837522507 26.1052805185 0.928438484669 -17.6935576797
-23.4720420837 -3.92878055573 -2.50071430206 -27.1515727043 -6.92055493593 -4.08511975408
-19.6303825378 -10.4891042709 3.11042714119 -18.5090360343 -15.2611892223 2.12564866245
-0.0592871010303 14.6953611374 -13.1066427231 -0.86603961885 18.4936182499 -9.95665973425
-4.23119020462 -17.5851211548 -24.8035697937 -4.22321820445 -17.5184401534 -29.8031188846
10.935297966 -3.52418518066 -8.44472503662 12.9014593959 -5.96998667717 -4.55213403702
19.3916358948 -11.9216766357 -25.2637271881 19.3035403974 -12.0810021423 -30.2604116797
-22.2087097168 -11.6164827347 11.0469245911 -22.2620617179 -15.2638462186 7.62729108334
-25.4225692749 15.7921113968 -22.6965084076 -25.3049947731 16.1290224046 -17.7092578411
13.3855829239 -5.96468448639 -18.1261615753 17.9547814131 -7.55520701408 -16.8641530275
-4.44207286835 5.12699460983 -25.666934967 -4.45482086879 4.92780711874 -30.6629495025
9.28821849823 -16.4830589294 -24.8202075958 9.08938150108 -16.7143709213 -29.8108946681
-9.16951847076 1.26565384865 -0.945149898529 -8.28451943398 4.2201538682 2.99029266834
-23.0039730072 -13.8624038696 -10.6216115952 -25.6617673635 -16.1136642992 -7.03441870213
-27.2716026306 -10.7662611008 22.1928939819 -31.0137366056 -14.0787549615 22.3472189847
24.0368747711 1.1011787653 -11.1166801453 25.6707447767 5.78699940443 -11.7278711274
-14.1960926056 -5.89210700989 4.92445516586 -10.2514515519 -8.82612240314 5.8362441808
27.7373695374 -6.53181934357 -21.8544197083 32.6954424381 -7.15425533801 -21.6809717007
14.7702417374 -0.284137994051 -7.19327497482 16.0809937716 2.72372457385 -3.42038589716
-15.4803390503 -9.50932216644 -25.3250694275 -15.3514150511 -9.67759917304 -30.3205734491
-5.08450460434 4.11410045624 -11.9668226242 -5.25083959848 9.03621655703 -11.1036256254
-2.27622866631 -15.9428396225 -18.0268859863 -2.13282566518 -19.7409960032 -14.7782793641
-0.461886197329 9.06984043121 -25.840007782 -0.453990197158 8.85692694038 -30.8354662061
-12.2095050812 -9.05395126343 -1.34561622143 -10.2518240511 -13.0505952835 0.933489710093
-11.193025589 -13.2318687439 -12.2786684036 -8.06205558777 -15.6500408053 -9.22097784281
-0.396207690239 3.73997855186 -4.89474868774 0.0531308278441 7.57199990749 -1.71454316378
9.14583873749 4.61247634888 -14.5848941803 10.5759697855 6.37981233001 -19.0381231904
-30.9966430664 -5.70929384232 -24.0292396545 -35.7429776192 -7.25988185406 -23.7684951499
4.18508958817 19.1063709259 -23.3990955353 6.78162646294 23.3777819276 -23.2848810311
-2.29068303108 -12.5397453308 -16.0977516174 -1.18560054898 -14.9372718334 -11.8514991403
-12.9924325943 0.767002820969 0.461295187473 -11.5405266285 4.7048638463 3.17887181044
6.7015080452 1.79280090332 -25.5663433075 6.67081604432 1.57764840126 -30.5616178513
-23.8373813629 -2.55237340927 14.2497425079 -21.1319694519 0.691839158535 16.9247810841
-11.4150247574 -8.98909187317 -25.235704422 -11.3001537547 -9.13529836945 -30.2322458625
-13.3391141891 22.996931076 -22.6062660217 -12.7833667025 22.8853825759 -17.6384996176
18.5983028412 1.39324426651 -9.02658748627 19.3565033525 5.27599275112 -5.96890884638
-28.3396701813 -4.35425424576 -25.4670295715 -28.376537682 -4.53855225444 -30.4634962082
-20.024023056 3.62366080284 -9.58708095551 -17.1167561412 5.89108780026 -6.20971935987
4.36542892456 18.982591629 -23.4971580505 7.61877799034 22.7787137032 -23.5691045495
-21.1809577942 21.1488628387 -25.8565807343 -21.2980267927 21.3474233449 -30.851264596
17.4982261658 -20.3846569061 -24.9173641205 17.3702981696 -20.6272294074 -29.909837544
-2.45442771912 -6.38869810104 -12.3295593262 -1.16362565756 -11.1076306105 -13.3617923409
-7.2350487709 15.4867982864 -20.5388698578 -9.22017222643 20.0576373935 -20.1305623576
1.97092938423 9.24736785889 -25.8458900452 1.95762088476 9.07192935422 -30.8427935839
21.4389343262 -17.9914779663 -21.1609077454 21.3554998282 -17.8932234626 -16.1625698209
-33.0639228821 12.936340332 -24.0775966644 -36.1767709851 16.8261439204 -24.501395151
12.9101467133 -4.27398681641 -10.7965898514 14.7613072395 -8.55760574341 -9.00109231472
19.7950439453 -24.3084335327 -21.1152839661 19.6093399376 -24.4406450354 -16.1204835773
-2.70882225037 -2.4519970417 -25.3489017487 -2.74295475008 -2.65090904757 -30.3448268771
-31.5230255127 13.8269090652 -26.0169010162 -33.7089100778 16.2880915403 -29.78047508
5.46291255951 -12.3909387589 -25.0244827271 5.4224420581 -12.5695997514 -30.0211257935
-25.1160125732 10.509519577 -22.6061820984 -25.2045410704 10.5681890761 -17.6073101163
12.6244125366 14.1969099045 -25.4442462921 14.7636426091 18.6811884642 -24.883048296
4.25951576233 -1.25432682037 -25.431060791 4.21778426412 -1.47239782661 -30.4261288047
-3.82864546776 -7.55581474304 -25.1248092651 -3.82831946775 -7.76332524046 -30.1205013394
-6.20960283279 -17.2309970856 -19.8942813873 -5.79459182173 -22.1659860015 -19.2060579211
-20.1350765228 -13.1747951508 -9.96811103821 -19.5139080212 -15.7342087626 -5.71798694134
13.4504785538 -2.11791348457 -8.09693241119 12.8664120436 -6.7319406271 -6.26127937436
-25.8141670227 -5.36610603333 -10.3000917435 -27.4989370108 -7.47420758009 -6.09088087082
10.2026157379 5.30529022217 -25.7144927979 10.177884737 5.12094622478 -30.7110321522
-19.0558586121 1.83508598804 -25.6787929535 -19.0098161101 1.74428148754 -30.6777564287
-23.3967628479 -8.30538082123 -9.34438323975 -26.0061904192 -8.90343631804 -5.12144362926
-22.2954368591 -8.50427818298 16.7881603241 -19.1836807132 -9.92379662395 20.4353429079
1.57288980484 6.25687503815 -9.30612373352 0.475778773427 9.37406891584 -5.55386412144
-4.44042301178 -0.95977050066 -1.24099934101 -3.06104308367 -1.82669048011 3.48613059521
-13.2234182358 2.99498200417 -25.6320667267 -13.143799236 2.86851050332 -30.6298327446
20.8616447449 -17.7616424561 -25.0877418518 20.7578562479 -17.9506124631 -30.0830914974
-18.7267436981 -21.5547447205 -22.4266910553 -16.9951201379 -26.1538182497 -21.504734531
-13.0725431442 -10.3734788895 -2.05137848854 -10.2352827787 -13.0595058799 1.06875151396
-1.73384034634 2.72822809219 -3.44445776939 -0.644972860813 6.08116310835 0.101271152496
-11.224114418 -20.1610450745 -24.9696922302 -11.0128569119 -19.8905065767 -29.957896173
13.672580719 12.6196498871 -22.0127849579 13.2878852263 12.7587903831 -17.0295478702
10.1521110535 -0.0256347991526 -6.17705535889 13.0283305049 1.5063626729 -2.38491278887
5.40347957611 16.1083240509 -18.4609031677 6.79163762927 20.8881200552 -17.9849126562
9.88466930389 -5.45201969147 -25.3183422089 9.79315230437 -5.62483719364 -30.3145167828
-11.0186080933 6.27505683899 -13.8404016495 -9.8316295743 9.92040121555 -10.6306441426
-23.38240242 -11.7611970901 14.3245544434 -26.6617113948 -15.534832716 14.2483649412
-18.2682704926 -8.09125137329 9.52806758881 -15.716483593 -10.0051183701 13.3784567118
-30.9706077576 -3.17016482353 -16.7118015289 -34.7534952164 -6.35018438101 -17.4715655446
10.999628067 -8.45535182953 -13.073507309 13.5805729628 -10.1985823512 -9.16200226545
-6.88798713684 5.17056083679 -25.662399292 -6.89421413711 4.93678983673 -30.6569272876
-30.186006546 -9.53558921814 -25.1172657013 -34.7308285236 -10.6171592325 -26.8990617692
-9.6745891571 21.7035121918 -22.6199073792 -9.87519115955 21.7671811935 -17.6243389845
16.8879547119 10.1440267563 -25.7337589264 18.5371846855 12.2351701856 -29.9654440284
2.96655344963 -11.4886865616 -25.0283679962 2.90612245165 -11.6629330665 -30.0249654651
2.78421258926 17.8921222687 -22.3467388153 2.78425208926 18.0987877771 -17.3510118723
3.58446550369 16.4406833649 -17.3372974396 4.90560498834 21.2189612389 -16.6871839166
5.77254199982 -11.8790254593 -15.3555707932 4.46802893281 -12.7220874876 -10.6029407978
-0.861673116684 21.9505748749 -23.5106716156 1.39233732224 26.3023809195 -22.5201056004
-18.0362930298 -8.63018989563 -25.4008178711 -17.9563135337 -8.7723713927 -30.3981559277
-23.4611759186 7.79284715652 -12.2530117035 -21.623742491 12.0055380464 -10.2839831412
34.9115829468 -5.60968446732 -6.1869301796 39.1614844203 -3.89170843363 -8.18365120888
-30.2086486816 15.0953903198 -24.9755306244 -33.3313363194 18.9972328544 -25.1318836287
-20.892496109 -2.27465009689 12.3049545288 -17.0269846916 0.772975921631 11.4275740087
-18.9877758026 13.1591835022 -25.9684581757 -19.0243348028 13.1108820029 -30.9680913091
12.6320714951 10.141582489 -21.9625797272 12.560469497 10.1205479889 -16.9631367326
12.6918563843 -2.86369657516 -8.96053028107 14.4940798581 -5.90994870663 -5.42891067266
-5.76289224625 -18.7061748505 -24.80676651 -5.54571573809 -19.6423713714 -29.7135344148
35.8659172058 -6.20606040955 -3.57633399963 39.986308217 -3.37486183643 -3.49450700171
10.4181470871 -17.9471645355 -21.5066757202 10.1983550899 -18.2650300339 -16.5216326118
6.5462012291 0.0114064998925 -5.03321743011 7.56965820491 -4.02412090823 -2.26427292824
7.5915760994 11.5404825211 -15.9161071777 10.5995104909 11.5598305205 -11.9221170545
-2.52299976349 -15.9386434555 -18.0080318451 -2.37276576273 -19.7669228315 -14.7952902317
-29.2839031219 -9.70644283295 11.4313821793 -33.5254611373 -11.1032192707 9.18233770132
17.1789169312 -15.034828186 -21.6834697723 17.6482684165 -17.4765461683 -17.3455298543
28.2928104401 -2.32421159744 -11.661649704 31.1229525208 -0.774117559195 -15.4810086489
28.8126335144 -4.30521869659 -5.05506420135 25.807780385 -7.03130656481 -2.13285559416
-2.17390751839 -11.4144678116 -24.9680233002 -2.24875301961 -11.6158533171 -29.9634054303
-17.9876976013 18.6445827484 -22.662820816 -18.605831109 18.6951237479 -17.701434195
1.57511079311 14.0040721893 -12.5704526901 0.627707257867 15.9448961318 -8.0609485507
-17.1361713409 12.5834980011 -22.5543270111 -17.2036263412 12.5555510013 -17.5548598766
-19.2589244843 -10.0389165878 6.28937530518 -17.7109984159 -14.744140625 5.60761730373
-20.2808418274 1.0031298399 0.192272797227 -22.0220472813 5.3431982398 1.96202082932
-13.1461181641 -9.90026092529 -25.2580604553 -13.0168956667 -10.0285564214 -30.2547434568
2.56528615952 -8.16034317017 -25.1427497864 2.48571465723 -8.33810767159 -30.1389553547
16.5793170929 -19.0860443115 -24.9400882721 16.4397660885 -19.2621023133 -29.9350388646
-9.32737827301 15.1190776825 -25.935590744 -9.14312876761 15.1396766822 -30.9321521521
-10.3684530258 22.8588581085 -22.6598873138 -10.5703995228 22.8882226092 -17.6640533805
-13.6656017303 20.1958827972 -22.6339969635 -13.9038367271 19.9287597947 -17.6468244791
36.588848114 -9.42349147797 -1.03188693523 41.5702845454 -9.79792297632 -0.8195409365
12.5430879593 -8.20618247986 -18.0988712311 16.7103815675 -9.25080744922 -15.5410553217
-20.7223625183 -16.3209648132 -14.8634166718 -22.6476895511 -20.5578268766 -13.0352706909
-32.9540252686 0.949781179428 -9.5658493042 -37.7617064118 0.486611180007 -10.8587822318
25.4872055054 -7.70972251892 -21.3349971771 25.4591335058 -7.77738051955 -16.3355336189
-13.210064888 -9.44637107849 -1.13845050335 -11.164570868 -12.9626255035 1.76876604557
3.33025240898 3.1851682663 -5.65258979797 4.89476943016 6.29071927071 -2.05984175205
-10.8387336731 2.17220211029 -25.5776596069 -10.8369991731 1.99903610721 -30.5746597052
-7.10450983047 3.12859082222 -4.94638299942 -8.10725486279 7.84515047073 -3.62404844165
26.3157138824 -14.5347089767 -21.3780212402 30.7292459011 -15.0085799843 -19.0766777098
7.77900981903 9.63708305359 -16.0542888641 10.7575612068 10.0007860512 -12.054794848
-22.4639339447 4.40880298615 -2.78647351265 -22.8104129508 4.12571398541 2.19346743822
-13.6834478378 -12.4438018799 -9.14039230347 -15.7835693657 -12.6641128846 -4.60817968845
-6.74381923676 -5.92134428024 -5.38623571396 -6.35950472951 -10.2169947028 -2.85647511482
-16.3504676819 -18.3113899231 -25.1252994537 -16.2741276827 -18.4658059254 -30.1223314404
17.3076820374 10.6829795837 -24.1879901886 20.4256811738 14.5561436415 -24.713997677
-16.3638706207 -8.86716651917 4.2183880806 -13.4543130994 -12.6940490603 5.592959553
11.7356281281 -18.0634365082 -21.4887752533 11.5788581334 -18.1324840095 -16.4917107821
25.3612880707 2.6566183567 -24.5488529205 30.0438972116 4.03496086597 -25.6320634037
-7.67188644409 2.75886869431 -25.5760211945 -7.61499894224 2.58373018727 -30.5726290941
-12.729180336 -4.0400185585 -25.4213161469 -12.6531708352 -4.21107355133 -30.4178110957
13.8974723816 -20.4493656158 -24.8269729614 13.7913223859 -20.6295376234 -29.8225979805
18.3610363007 -21.9909553528 -24.8816165924 18.2356068008 -22.1929113492 -29.8759616017
16.9801578522 -7.5583190918 -25.3613185883 16.8675768506 -7.71703908965 -30.3575307131
-27.6179695129 -14.6844043732 -25.2768630981 -27.3828840069 -14.6476393738 -30.2711979747
-0.119871497154 8.85711956024 -13.9185161591 -3.34798008204 10.1939210594 -10.3418872952
-25.8038711548 -2.9768383503 3.96263217926 -29.7839301825 -0.460253953934 2.28158122301
-28.9610481262 -0.805792629719 -4.89352226257 -29.6648211032 -5.23814511299 -2.68921822309
12.6340579987 -12.1386728287 -25.0900707245 12.4667499959 -12.3165048324 -30.0841057897
19.6282939911 -26.2066802979 -21.0937385559 19.5780654922 -26.0852067955 -16.0954664946
10.9661769867 -4.98327350616 -10.2415971756 14.0286189318 -8.12719291449 -7.84634816647
13.7541570663 -3.73959374428 -17.0771865845 18.0638151765 -5.39844167233 -15.1601390839
-10.3210020065 -11.311422348 -5.00852060318 -7.99781143665 -14.8158547878 -2.3026497364
15.7198286057 -13.8094148636 -25.1123561859 15.5830566026 -13.9798238724 -30.1075791717
0.762685716152 -5.77843761444 -25.2250442505 0.747031715699 -6.00232310966 -30.2200046778
14.0794944763 -12.5502500534 -20.7514667511 18.8123995066 -14.0848275125 -21.246118769
-3.06624484062 -17.53099823 -21.6777667999 -1.84507031739 -20.255993247 -17.6673883796
2.54238605499 17.0879192352 -18.8290481567 4.07590299845 21.7690576315 -17.9715706706
20.9920120239 6.05084133148 -21.7530155182 20.904987026 8.30534589291 -17.2909939289
4.6122469902 16.2785835266 -18.1062679291 5.80099196732 21.1038504243 -17.5551924407
-12.1460533142 -19.576593399 -20.397359848 -9.57543134689 -23.7136617899 -19.2675078362
-16.2897911072 26.1657066345 -23.096118927 -19.3788110614 30.0780917406 -22.7072769254
-19.6045780182 23.5311870575 -25.318315506 -22.5877028704 27.5186525583 -25.7667415142
-21.4643745422 -0.249810799956 2.94853639603 -21.8148665428 4.24312861264 5.11432689428
-2.84196734428 -15.9325876236 -24.8093318939 -2.72896784358 -16.0974231325 -29.8053362966
-4.21690320969 -8.39929294586 -25.0991592407 -4.20416970993 -8.60300044343 -30.094991684
-9.89265441895 15.2379045486 -25.9447536469 -9.86769091804 15.2520140484 -30.9446716905
-9.36025905609 10.1858644485 -25.8773651123 -9.34378205636 9.95772744715 -30.8721306324
-17.4632148743 2.72394633293 -10.7548751831 -16.2362248749 5.25279229879 -6.61972904205
9.47665214539 -16.7687072754 -18.2705440521 11.3394531608 -20.3685303926 -15.3428750634
-7.9597029686 21.6889781952 -22.5911159515 -8.08974797279 21.6516921953 -17.5929464102
21.5826206207 -2.53999376297 -8.71169090271 20.4373721331 -7.09218734503 -6.9895003736
9.37561702728 -0.574519097805 -5.6964969635 9.6367145218 -4.21948319674 -2.2838640213
-22.9116172791 -0.686814188957 2.97256183624 -25.5090512037 3.56736123562 2.57844784111
16.7805786133 -3.90542006493 -25.469701767 16.6980136167 -4.04930556566 -30.4669486284
7.5701751709 -2.23750567436 -25.4141407013 7.55051917024 -2.42895868048 -30.4104350805
1.07670116425 -9.90256690979 -25.0628318787 1.02605066448 -10.0736219026 -30.0596483946
-2.27925014496 9.14801216125 -25.8388576508 -2.27367264498 8.94641315937 -30.8347887397
-16.7327136993 1.50901663303 -25.6341915131 -16.6514207032 1.38999363594 -30.6321133971
-6.04460906982 5.37953329086 -14.6363573074 -5.47277708352 7.88879466057 -10.3495617509
-3.12861609459 -16.8999633789 -19.7705917358 -2.18568313122 -21.7347664237 -18.9129462391
-17.1165599823 11.5003099442 -22.5234165192 -17.9587330073 13.0191249549 -17.8347125053
13.8898448944 -11.0960130692 -18.903755188 18.3775033355 -10.8370110691 -16.7142716944
-3.56807589531 -10.8125305176 -24.9983406067 -3.53086289484 -11.0013335198 -29.994636178
-15.3809347153 9.11916828156 -16.1052074432 -15.9043772295 11.7516571879 -11.8866758943
-25.943195343 18.4565296173 -25.1790599823 -28.9604927301 22.4361955523 -25.4202489853
-27.9336891174 11.3554849625 -22.6190299988 -27.9115096168 11.415972962 -17.6194451451
29.7437133789 -2.93272209167 -3.80418038368 28.3764333427 -1.68670509756 0.841030716896
-19.6798400879 -5.19064569473 -5.12757062912 -22.8561692238 -8.64625507593 -6.85085117817
-12.1911258698 2.31181049347 -7.90066051483 -14.3902054131 6.76912361383 -8.44509850442
24.0595111847 -11.5252342224 -21.3357276917 24.1828636862 -11.2173202224 -16.34674263
3.44251918793 -3.94519400597 -7.99585103989 5.83257812262 -7.6735855341 -5.67492052913
-27.8072605133 -17.758272171 -25.0532264709 -32.6229856014 -18.6506231427 -26.0594574809
-25.7341365814 -1.1282273531 -4.76331949234 -23.4878361523 -4.36107391119 -1.6806524992
-7.34821510315 -17.37940979 -19.631526947 -5.97819414735 -22.1345652342 -18.9163079411
19.252494812 -8.50169944763 -25.3742828369 19.1649653167 -8.69613594562 -30.3697338104
-14.0959653854 -18.7471981049 -13.9731025696 -13.3410473764 -21.7452837229 -10.0435250998
23.2727470398 -2.67715644836 -8.12945747375 21.9507875443 -7.0768533349 -6.15585947037
-27.4133834839 -2.58135104179 12.0319852829 -30.6820953488 -0.0878729820251 9.18627089262
-10.9213781357 -18.8203334808 -20.2360534668 -8.91450613737 -23.2780399919 -19.1866159439
-32.1210212708 -1.28747045994 -10.2127418518 -36.1518217325 -4.23176258802 -10.5022148453
15.7766809464 -8.44318771362 -25.3107280731 15.67740345 -8.58904171363 -30.3076140285
30.0355701447 -2.46015501022 -4.69472837448 31.4483081102 2.32648897171 -4.39106537774
-26.5708751678 4.23302745819 -5.46181297302 -24.7003321052 5.88473802805 -1.12903988361
-27.0523738861 -5.86859703064 24.2235012054 -31.1288109422 -3.76978650689 26.2179076374
-16.9894981384 -6.11970043182 -25.4470653534 -16.9108641427 -6.32135093585 -30.4423783422
-16.6356163025 -0.822201013565 3.52147364616 -16.6733083031 3.25512087345 6.41526424885
21.4237442017 -10.5880756378 -21.3448505402 21.2442037053 -10.3908396401 -16.3519691229
10.4464492798 15.8536529541 -24.0870342255 13.1803441644 20.0247079134 -24.4449722245
7.03205013275 7.07072782516 -10.4250946045 8.17654410005 11.8253414631 -9.38404457271
-19.8857154846 -17.8497600555 -16.8880176544 -20.8816294521 -21.7872416973 -13.9717882872
15.8575468063 -2.01197743416 -7.29547834396 18.2141937613 -5.71609437466 -4.90262782574
-5.47385978699 12.8506278992 -15.4797115326 -8.29900074005 15.1176133752 -12.033067584
-17.570766449 19.8470821381 -25.928396225 -17.5465469491 19.8877496375 -30.9281721115
35.6617050171 -5.83299160004 -2.82531142235 39.7617154121 -3.17986965179 -3.89809191227
-19.8919067383 2.57088565826 -1.49432313442 -21.1518496871 3.64059568942 3.22460281849
-28.7518978119 -0.384093791246 -3.309871912 -29.5676612854 -0.25861078687 1.62153595686
-11.6874408722 -0.512669086456 -25.5094604492 -11.6218123725 -0.649906089529 -30.5071460009
-1.19983613491 22.1202278137 -25.2885150909 0.0728163123131 26.8847927451 -26.1126966029
-25.7714271545 15.3464241028 -25.8801841736 -25.7151886541 15.5465886071 -30.8758595586
-14.6683559418 10.756149292 -17.9658870697 -15.5867809653 15.055398643 -15.584091574
-6.36479234695 10.7119417191 -15.5907411575 -8.45317682624 10.8967757225 -11.0515246987
28.6016788483 -1.51716554165 -6.27877807617 28.5787518471 2.63090646267 -3.48718857765
9.72769641876 -1.44377076626 -6.80112552643 9.89025691152 -4.62872439623 -2.95019757748
-19.5516338348 8.25556564331 -15.1832342148 -19.3177808411 12.6817106009 -12.8692431748
-16.094581604 21.6937904358 -22.5543422699 -16.3022856116 21.7953219377 -17.5596902966
22.2685203552 0.933296203613 -25.7107124329 22.1686933506 0.798922700807 -30.7079095244
-15.5353708267 -20.3778190613 -20.3682460785 -14.8839893639 -24.9992350936 -18.5743076503
-0.068029999733 17.0926837921 -15.9141178131 -0.832645535469 21.9894601703 -15.2531028241
20.4655094147 7.86385726929 -25.1755237579 23.0794579983 10.1100568175 -28.7979346514
-24.0017318726 20.0237903595 -24.934589386 -27.2037094831 23.8470164537 -25.2955338806
16.0722122192 3.05195045471 -11.4865026474 17.4115327597 7.86636453867 -11.320249144
-9.10823345184 18.6633720398 -22.5107135773 -9.02819645591 18.7814945411 -17.51274997
29.2088069916 -3.86621832848 -11.365940094 31.8252875805 -3.849316329 -15.6266610026
-4.29988098145 7.50034475327 -15.0706939697 -4.70380999893 7.68747824803 -10.0905509591
19.2280254364 -9.96346282959 -25.3266448975 19.1297049392 -10.1422613226 -30.3224794269
27.9454841614 -4.77531051636 -21.6024341583 32.7354972959 -5.45552550256 -20.3402596116
-20.3270893097 5.63703966141 -3.20057940483 -18.9770463407 9.61791914701 -0.493185937405
-7.75823402405 9.56355476379 -15.7354879379 -8.25533553213 10.9516918063 -10.9578353167
19.5462932587 3.63906145096 -25.7387104034 19.5068917572 3.5488064494 -30.7377403378
-1.54439735413 15.6805877686 -14.5061674118 -3.59192791581 18.6714192033 -11.0619627833
-28.6616764069 -14.5575504303 -23.6494445801 -33.464671433 -15.9330408573 -23.8476020843
-8.0819196701 -5.16329050064 -2.4781267643 -4.95379370451 -8.39845061302 -0.299006283283
-18.3514709473 -9.15544319153 -4.01816225052 -21.7811749578 -12.4084915519 -5.64751973748
25.4263725281 -5.95263671875 -21.3073558807 25.4652150287 -6.17461672798 -16.3124368787
21.456413269 -17.8181037903 -21.1633071899 21.4345657686 -17.6540652886 -16.1660466194
-26.8057727814 17.9588298798 -22.9121837616 -30.0840386748 21.7323305011 -23.0290832594
-17.6165275574 -4.78674459457 9.62445831299 -14.5106239915 -2.8324765265 13.0206624269
-4.83317232132 -5.59136915207 -5.28332853317 -3.98096835613 -9.22580766678 -1.95697808266
-6.43333053589 18.7131004333 -25.8321800232 -6.26490652934 18.7302399329 -30.8293130398
-13.6253166199 -7.70146036148 1.37316894531 -11.2004421651 -10.8215182424 4.43669986725
-18.9555644989 4.87939834595 -11.2878723145 -17.1551190317 7.59733647108 -7.49693495035
-11.7892980576 -19.4433078766 -20.7475299835 -9.41900700331 -23.7369424701 -19.7746865153
0.692735314369 21.1478710175 -25.4629917145 3.15659880638 25.3498956561 -26.5909842104
-10.8075380325 -3.98095154762 -25.3830604553 -10.7145070285 -4.12772005051 -30.3800399899
15.2340745926 9.46145820618 -25.8252105713 15.2535150922 9.44091920694 -30.8251307011
-6.04448747635 -16.8468494415 -18.51379776 -5.00857946277 -21.3747928739 -16.6632247865
8.55262088776 6.29766511917 -13.6106929779 10.5854514539 10.225985229 -15.9421949685
14.0338783264 -13.0436010361 -21.4097175598 16.2524482906 -14.3830795288 -17.1337679625
-27.2097434998 3.13010048866 -3.825476408 -25.9139569998 7.5781185627 -1.94503197074
27.3705005646 -8.08130836487 -22.7231845856 32.2084710002 -9.22400785983 -23.2601030767
6.38638401031 6.96360874176 -25.7721748352 6.37822251045 6.70117073879 -30.7652758956
4.80794477463 -2.19744372368 -25.3976478577 4.78018627455 -2.38654871657 -30.3939934969
-26.3109607697 -2.11193180084 -6.64633131027 -24.9744127393 -5.683560431 -3.41258591413
-10.7353057861 20.4507637024 -22.5865955353 -10.7120852857 20.7465256937 -17.5954045057
21.9246673584 0.297424912453 -8.30259799957 21.7137528583 3.58137798309 -4.53813642263
5.2337474823 -0.564359426498 -4.92597198486 7.68418204784 -2.78444543481 -1.17542660236
18.8344421387 2.23724579811 -21.6989536285 19.348280631 2.32313880138 -16.7261685133
-0.15055949986 3.81285738945 -5.00424718857 0.298598006368 7.77956944704 -1.9936901927
-17.5392131805 10.9552488327 -25.94789505 -17.4993881788 10.775004331 -30.9444865584
-26.0211238861 6.21470355988 -7.18303632736 -24.7179428339 9.54124802351 -3.68506234884
0.60304492712 -3.21503925323 -5.24271011353 2.41852849722 -5.79317885637 -1.36234760284
2.06745934486 -13.5672912598 -16.846124649 2.13052634429 -14.7811872363 -11.9961265922
-20.6020069122 12.0744771957 -22.595582962 -20.568927913 11.9920482002 -17.5963718295
16.7187175751 -12.1410589218 -21.3953742981 16.621920079 -12.1546374222 -16.3963297606
-18.493724823 12.4062852859 -22.5855197906 -18.4270328227 12.3895102863 -17.5859927535
-20.7576160431 -16.1475925446 -14.4104156494 -22.789262116 -20.5204196572 -13.087238133
-32.0387535095 2.79063987732 -12.1617984772 -36.6287149787 4.17663532495 -13.5799899697
-22.0197315216 21.0873718262 -25.8338890076 -22.7953809947 22.6229273975 -30.5286133885
-2.20213675499 11.5809841156 -13.6931581497 -3.98553618789 10.1978391111 -9.23149955273
-22.6862411499 -3.31540727615 16.4292469025 -22.7216821508 0.27235275507 19.911591351
-21.2489261627 -10.2579860687 14.1739311218 -17.1321176887 -10.7425555512 16.9698351026
-21.0891132355 -2.7267935276 10.8184251785 -18.1508653164 1.29189407825 10.3527541682
-9.41536617279 15.3836374283 -25.935005188 -9.23637316376 15.4055999285 -30.9317522645
7.30274438858 7.57203865051 -15.5601663589 9.76546987891 8.02475816756 -11.2323464155
-14.5781183243 4.70234775543 -25.6969928741 -14.526892826 4.52629575133 -30.6936299801
-2.57694745064 -0.87736839056 -1.88497829437 -1.0681989193 -1.75474742055 2.80051869154
15.0098638535 12.3529863358 -22.2311782837 18.0107428432 15.7191649079 -20.0716488063
12.9147558212 11.1703128815 -21.9919929504 13.0130958203 11.7181873769 -17.0230734944
-25.5898647308 -10.4804553986 7.98789215088 -27.8544622958 -13.7755238414 4.98553973436
-27.6139297485 -7.61863899231 5.1408200264 -31.6034188271 -10.4071621299 3.99709056318
35.0485496521 -6.10955238342 -6.2146062851 39.2856015563 -5.14809586108 -8.68907433748
-20.4821414948 -2.78317546844 13.6216316223 -15.8375204802 -0.931833446026 13.6162131224
21.8826370239 -0.225665003061 -25.6701965332 21.783918526 -0.363720005378 -30.6673149467
-23.2480125427 6.28266954422 -9.66961574554 -21.0418094993 10.3061180711 -7.68353131413
21.0058040619 -0.72055798769 -7.2959151268 21.4456395507 2.01370346546 -3.1329407692
3.56818008423 1.81539881229 -4.19959020615 4.77030161023 6.27983021736 -2.29597371817
19.7278652191 -3.14500689507 -11.4994239807 19.6415452231 -8.14112126827 -11.3222574815
7.53759336472 -2.25277781487 -7.07845783234 7.79292787239 -5.24618983269 -3.08167344332
-5.09200191498 -12.7955217361 -14.6661014557 -2.77195340395 -15.2587267458 -10.9850693941
-21.0138893127 -9.60747241974 -8.08713626862 -22.8140588105 -10.9014329314 -3.6055008769
10.6705856323 -7.3698015213 -12.6970186234 13.9283812046 -5.30907344818 -9.51265567541
-23.6917419434 -2.39082336426 9.49953937531 -23.4964154363 2.58286565542 9.97310487181
-17.9752235413 -1.67275214195 5.50456142426 -16.3732365072 2.91341549158 6.68807542324
-30.6032886505 -7.54904603958 -25.2341747284 -35.0438615084 -8.85778805614 -27.1232242882
23.5026435852 -14.5213155746 -21.1896419525 23.5189370853 -14.5131230745 -16.1896753311
-6.1486825943 -16.6487045288 -24.8649768829 -6.08841359522 -16.815965537 -29.8618148565
23.4147911072 -1.23343753815 -25.6644153595 23.2576381154 -1.42883853242 -30.6581234932
-22.7266921997 0.16566079855 -1.74714374542 -26.7826851606 3.08595967293 -1.89128324576
27.6912956238 -6.61841249466 -21.6168518066 32.2839115858 -7.44902646542 -19.822984308
-16.4842224121 -8.34102630615 -25.3787879944 -16.4015439153 -8.46134230494 -30.3766565323
-15.9219646454 -7.09447431564 6.65718460083 -12.5472450256 -10.4732363224 8.13881763816
30.3587703705 -1.58591187 -7.05126905441 32.2461563647 2.98409664631 -6.30776458979
-31.7218742371 0.734294295311 -16.1698131561 -36.4240226746 1.88651332259 -17.4196891785
16.9199943542 2.72659420967 -12.2320652008 18.0870918185 7.42602884769 -13.4783387184
5.32159900665 -8.39872074127 -12.9231004715 5.19092550874 -12.5715528131 -10.171664834
2.96886897087 -10.1255607605 -25.0736656189 2.91487197299 -10.2826032601 -30.0709071159
12.5271511078 -3.53955173492 -15.3648118973 15.5065730214 -6.32819736004 -12.4757804275
-11.4379415512 -20.0932369232 -22.424861908 -12.308036074 -25.0169104934 -22.4442709079
9.73409366608 0.0681340992451 -5.57597446442 12.9904581308 0.536906599998 -1.81082594395
2.12222647667 9.22821426392 -25.8511695862 2.10301897652 9.04161126912 -30.8476496339
-27.5537223816 -9.98988056183 21.295211792 -32.0051540136 -12.2211060822 20.8409077972
-22.4961662292 3.92651891708 -2.87127280235 -22.567705228 2.9271094352 2.02730482817
-32.9908828735 13.031129837 -23.7076473236 -36.0603423715 16.9536754489 -24.1458863392
-18.1324272156 -15.4983558655 -11.562037468 -17.991827216 -18.9736213684 -7.96999633312
8.15941524506 -0.929604828358 -25.4683551788 8.13598274533 -1.13416232541 -30.4641143084
-23.976688385 6.89559221268 -9.97023582458 -21.3833269477 10.5860507488 -7.81269282103
-3.35087895393 -18.2866611481 -23.932592392 -0.700303316116 -22.4516385198 -24.724686414
-7.23831367493 1.80306351185 -1.75994384289 -6.34188716114 4.5068833828 2.34928679466
-17.424118042 -17.9518928528 -15.2844772339 -19.8755800426 -22.2266804576 -14.4379992634
6.06615543365 15.5099229813 -16.1340045929 7.61326700449 20.1629050374 -15.1561485976
-1.58752584457 -7.23835468292 -25.1493034363 -1.61990634492 -7.47080719098 -30.1437917948
-11.906457901 14.9994382858 -22.4437847137 -12.2240989134 15.2414797843 -17.4597581625
-4.17432641983 15.2633314133 -18.4291152954 -6.20462989807 19.8226149678 -18.1277823001
-25.5885238647 -2.68653845787 12.6239442825 -22.8891364932 -0.0926414728165 15.9383076429
24.7145767212 -4.35298442841 -21.2781867981 24.6684782235 -4.3662984285 -16.278416872
-12.6562929153 7.05067205429 -14.3371839523 -12.1975169331 10.8503826261 -11.1197744012
-1.57119953632 -2.83319759369 -4.0250916481 -0.185268610716 -6.00388544798 -0.41594606638
-12.3517131805 -11.945022583 -5.38470077515 -12.8749251738 -16.9062706232 -5.04963777214
-30.9792327881 -5.62206125259 -22.9223632812 -35.761679709 -7.02330520749 -22.5165132806
3.59003567696 17.1301956177 -22.3336677551 3.43343717605 17.3174781241 -17.3396311998
-7.36075162888 20.5830001831 -22.5707168579 -7.40486463066 20.5970366835 -17.5709314346
10.2844057083 10.5686178207 -20.5355148315 14.8710227609 12.5582637787 -20.6007338334
13.8816413879 -18.0164794922 -21.5464916229 14.4117428958 -18.631300509 -16.6128330827
0.210802301764 -16.0083427429 -24.8154811859 0.100906303152 -16.0148042426 -29.8142691255
6.66533565521 13.8882465363 -15.2577323914 10.3280827999 14.7079170197 -11.9543362856
-3.06407308578 14.0907554626 -25.9268245697 -3.05053308629 14.2601419538 -30.9239361286
20.6477489471 -1.00608122349 -25.6221427917 20.5344089456 -1.12449172698 -30.6194552183
13.3963832855 -6.91631746292 -19.1032352448 17.8872383237 -7.34900147468 -16.9480077326
-11.8159265518 -16.2023906708 -13.1463060379 -8.23870253563 -19.3381397724 -11.6066469848
16.5607357025 -2.91586089134 -10.3992462158 17.3635196686 -7.48999583721 -8.54645714164
-14.2943477631 -19.3677501678 -14.9150657654 -14.5695307665 -24.3486140966 -14.5755557716
-12.8860702515 -20.5796165466 -24.5327396393 -12.8997857517 -25.5701996088 -24.2263236344
-22.7559108734 -4.2097697258 -8.04136943817 -25.1662689149 -4.52646421641 -3.67217284441
7.91323232651 7.05823087692 -12.2352819443 9.45427137613 11.7693709731 -12.8912979662
-8.18133163452 -4.03935718536 -0.73422652483 -5.37872898579 -7.4750970602 1.57685744762
-10.1180200577 20.3633365631 -22.5890159607 -10.1849925583 20.6755090542 -17.5992199779
15.8986148834 -2.88315272331 -10.0471496582 16.5977948755 -7.38404667377 -7.98484459519
-26.3023319244 -10.1814651489 8.25252437592 -28.9695369601 -12.9794242978 5.08117729425
-6.87933397293 20.0501937866 -22.5701274872 -6.92759347428 20.0860062875 -17.5704883933
17.4942550659 -19.2209568024 -24.9580955505 17.3669585623 -19.3680283017 -29.9543106556
-19.6036148071 -15.2793922424 -11.3699989319 -19.5122813061 -17.9649546146 -7.15343493223
-15.6496782303 -15.7140922546 -9.97763061523 -16.9541597068 -19.3565252423 -6.81045347452
11.21788311 -18.5599708557 -21.4946708679 10.9381676018 -18.6905583553 -16.5042093992
11.1326799393 10.2229032516 -25.8537120819 11.15478994 10.1741902521 -30.8534259796
-15.0634937286 18.1739883423 -22.6317253113 -14.1284827441 18.0305833388 -17.7220218778
16.8440933228 -17.4251613617 -25.01055336 16.7341743205 -17.5912883542 -30.0065839887
-7.64646816254 -17.4372425079 -19.4200687408 -6.1285391748 -22.1198188663 -18.5429317057
27.1855239868 -8.88135719299 -22.1773719788 31.9104536176 -10.4870976806 -22.4882414751
-25.1753959656 -2.06754302979 4.2432050705 -28.5260910392 1.44149744511 3.03511555493
-30.4956283569 -3.77552199364 -15.8050699234 -33.9684900045 -7.36845004559 -15.9785689302
6.02603912354 15.8268375397 -17.7361221313 7.72374555469 20.4847474098 -17.0867626071
18.7276992798 -20.631696701 -24.9353866577 18.6086987834 -20.7877946999 -29.9315320253
2.23789954185 -5.6151804924 -13.7510175705 -0.305744469166 -8.68273741007 -10.7310889363
-18.5240821838 7.24219179153 -13.9083862305 -18.0003696978 11.1903954148 -10.8855706453
-13.2772665024 -19.5124931335 -18.18009758 -11.626113981 -24.1021065116 -17.0804875493
1.84388005733 -4.18665981293 -6.79941272736 4.12321859598 -7.53710186481 -3.8703930974
-1.53522777557 -0.237424597144 -2.14254426956 -0.059953212738 -0.940703079104 2.58280915022
-24.2205085754 -11.786239624 10.7157764435 -27.1610780954 -15.3106941581 8.73303300142
-14.1630239487 -10.3304100037 -25.2710838318 -14.0368524455 -10.5058749951 -30.2664108276
-0.88238042593 -7.56095504761 -25.1411762238 -0.923195428215 -7.81894904003 -30.1343488097
-4.18697500229 -1.7432179451 -25.3708534241 -4.19380000245 -1.94727545232 -30.3666828871
-35.0972518921 -6.80729866028 20.7752437592 -32.5369033813 -3.86254370213 23.9014286995
20.1719074249 -24.5987987518 -21.1157093048 20.0574514288 -24.6942247543 -16.1179301739
-9.03875732422 -5.73346805573 -1.50425255299 -5.05216234922 -7.59842601418 0.868296921253
-16.556552887 25.9172935486 -24.6345443726 -19.5992493033 29.8788420558 -24.8539348766
-22.6874389648 -10.2383365631 15.634100914 -19.3032174706 -11.9010145366 18.9177798033
-15.3146457672 10.0005245209 -16.8912582397 -15.7004987821 14.0423449874 -13.9732446074
30.4193000793 -2.2234210968 -5.47776269913 31.2781305909 1.83100128174 -2.68060910702
7.7561173439 17.2620258331 -24.4441413879 9.96152541041 21.7480373979 -24.5531193912
-14.0998239517 7.46325588226 -25.7976951599 -14.0879739523 7.28614287823 -30.7945432663
9.93541526794 4.20667552948 -8.58877944946 12.3903252482 7.00851494074 -5.25364655256
14.2237634659 -11.1475763321 -20.3315048218 19.1559175849 -11.462740846 -19.5735273063
18.1494884491 -0.0590437985957 -25.6124649048 18.0919599505 -0.226341295987 -30.6093338728
3.10462331772 -9.7194852829 -25.0920181274 3.02562931925 -9.90655228123 -30.087893188
18.8277721405 -22.8887958527 -24.8597278595 18.696727138 -23.0830293596 -29.8542349935
13.4764270782 -19.2629203796 -21.6667098999 16.2074970007 -20.4752404094 -17.6577777863
17.5107631683 -11.5431432724 -21.3914031982 17.576631167 -11.5505712725 -16.3918427825
-8.89937400818 21.7282390594 -22.6069717407 -8.95010050852 21.8185635563 -17.6080452204
-28.9103813171 -3.20669150352 14.2279586792 -31.5235201716 1.04255491495 13.8882411867
-21.8358745575 13.2167377472 -22.6066074371 -21.8832050553 13.3057057448 -17.6076228023
-4.16491413116 21.8735713959 -22.5377368927 -4.33705063164 21.9379253946 -17.541115284
5.40754127502 5.37738323212 -25.7047309875 5.404785775 5.13931373134 -30.6990596056
-25.5280723572 3.92931652069 -3.60190105438 -29.6382572651 6.13120552897 -1.79689002037
9.06899833679 16.5720062256 -24.8595085144 11.0309902728 21.0837106705 -25.7511969805
13.4842977524 3.24929833412 -19.7030601501 18.0924067497 4.76273134351 -18.4886251241
-4.38164806366 7.63617372513 -25.7746448517 -4.38402756359 7.43826471642 -30.7707258463
11.5909700394 7.78551959991 -25.817817688 11.6151275388 7.66107660346 -30.8162107468
15.5615472794 -0.616482794285 -6.89045667648 15.6996917818 2.54541665316 -3.01962912083
-26.8612575531 -6.25758314133 25.0023441315 -31.2562075257 -5.15617416799 27.1168920696
-31.8628959656 -10.0442142487 17.1571979523 -32.2015599832 -14.756883204 18.7930639684
-0.215554505587 -5.72473716736 -25.2250175476 -0.233263005968 -5.95977767184 -30.2194585204
-16.6874656677 23.9833202362 -22.6236095428 -16.9281496704 24.1988527365 -17.6340585351
2.86781859398 12.4226369858 -12.4064483643 4.3401786387 14.1205405593 -7.93998682499
24.0996398926 -1.39642322063 -21.2694034576 23.8009858839 -1.16564822942 -16.2836689353
6.63736724854 -0.970770895481 -25.4583072662 6.62211124878 -1.17480789497 -30.4541191459
-14.1108131409 27.8513469696 -25.0009460449 -17.3417940736 31.6469895244 -25.3931965381
-17.2748394012 -9.52283287048 0.875657081604 -15.8227173686 -14.2979177237 1.17549858242
9.86499500275 11.2302312851 -25.8696861267 9.87721200264 11.1892347867 -30.8695031404
-13.5154438019 -14.2807302475 -8.55628871918 -14.259570837 -15.2020972818 -3.69857782125
13.4335098267 -1.52443742752 -6.68489265442 14.3805448562 -4.50295335054 -2.78212863207
-17.9947452545 10.994635582 -19.1422042847 -18.0060907542 15.6595665812 -17.3426798582
-14.4557533264 -11.457285881 -2.21732974052 -13.6762938499 -15.7268249989 0.265305787325
-4.07985973358 -11.2605628967 -14.3258008957 -1.725682199 -13.4602678418 -10.5023018122
-29.7849674225 -11.0330257416 -23.3892917633 -34.5757929683 -12.4319486916 -23.0876202695
-16.7583217621 -18.8443660736 -16.9307250977 -18.2527197301 -23.1880584359 -14.9561085999
-5.94940805435 -13.4059610367 -14.5473299026 -3.77989256382 -15.6331240535 -10.6315988898
10.93364048 -2.91717648506 -25.4251251221 10.8594834823 -3.09373399243 -30.4214567542
5.0885014534 7.49450445175 -11.2063932419 6.16538594663 12.1126919985 -9.62125569582
-12.4736709595 -3.96284747124 3.45140981674 -9.38892406225 -7.67057049274 4.76941037178
-22.8762874603 -0.223715499043 -2.34850168228 -27.1605110765 2.14535157382 -3.36484365165
-21.1044387817 -2.56386804581 9.70533752441 -18.6449092925 1.58429634571 11.0257340372
34.2346076965 -4.21971607208 -5.27868652344 37.97194767 -0.934231460094 -4.79095903784
-20.0200443268 8.49750804901 -15.6583271027 -19.8720558286 13.0100916624 -13.5101445615
13.7290754318 -12.138838768 -18.5060195923 17.7155690789 -11.778575778 -15.5096750259
20.4976196289 -13.7400064468 -21.3217029572 20.0388111249 -13.8071809467 -16.3432509303
-1.88145506382 0.379598885775 -1.8329834938 0.335666954517 -1.16112068295 2.37540692091
-19.8788223267 -21.2074813843 -21.759677887 -19.6211913265 -22.3309613615 -16.8943495154
22.6217842102 -0.698077201843 -7.10210466385 22.9077012092 2.60576325655 -3.36006128788
-19.305305481 -5.46921110153 12.5289478302 -14.391964972 -5.73373809829 13.4172658026
22.9472045898 -20.2385101318 -21.1094532013 22.854266094 -20.2118806322 -16.1103881001
-5.91346025467 -3.3251812458 -2.26285529137 -3.73451724648 -7.13886165619 0.126297205687
11.5565099716 -8.13707351685 -15.3130083084 15.718955338 -8.53910449892 -18.0538876653
17.9135437012 -5.54230451584 -25.4439659119 17.8181452006 -5.68154851906 -30.4411159158
4.76926326752 16.1999435425 -17.7073307037 5.95363974571 21.0309846401 -17.1991022006
-10.9413309097 -18.3913116455 -18.5791549683 -8.94076389074 -22.8777797818 -17.6467724741
35.3054389954 -6.77615118027 -5.93127012253 39.4634959698 -6.78833368048 -8.70803326368
24.5146446228 -7.51212072372 -21.335313797 24.4795631217 -7.58663122356 -16.3359923959
28.3956680298 -1.93863248825 -5.1585855484 28.8652065247 2.82339090109 -3.70852807164
-6.3127655983 6.8296084404 -15.0713195801 -5.90856210142 7.94525144994 -10.2141641974
-32.2524490356 -1.85822796822 -7.46528959274 -35.8776354194 -5.0854934454 -8.66644656658
-15.5318717957 -3.11155557632 5.95498991013 -13.2658912539 0.142014026642 9.00123637915
18.7870178223 -17.8309345245 -25.0384025574 18.6575043239 -18.0290400237 -30.0327976346
16.9255046844 -3.34404039383 -12.8862991333 17.9897516519 -8.22895336151 -12.9570416324
22.7116222382 -3.36096858978 -11.4599647522 22.2902257442 -8.27034568787 -12.3087532222
18.8331756592 -23.8813610077 -24.8250007629 18.6672141626 -24.0161215123 -29.8204281926
-24.1655330658 -11.5046186447 13.6268224716 -22.3451631069 -16.0319761634 14.7173670083
19.5790863037 -25.0740680695 -24.8107128143 19.4891513046 -25.192641573 -29.8084973097
-1.29185438156 9.23850154877 -14.2968997955 -2.61332690716 8.29822807014 -9.56724917889
14.417517662 2.83188128471 -10.2801818848 14.8877926469 7.31347376108 -8.11357837915
18.3123188019 -6.67839479446 -25.4152851105 18.2281808015 -6.8273197934 -30.4123585224
20.7189006805 7.70441818237 -25.0850257874 23.2499931455 10.009473145 -28.7292391658
6.6547703743 -4.80632591248 -9.61518669128 3.61992388964 -8.03304451704 -7.29613626003
24.2214794159 4.6298418045 -23.5914916992 27.9535783529 7.94208025932 -23.9085296988
20.4794998169 -27.337928772 -21.1081180573 22.8132103086 -29.3538368344 -17.1723956466
11.3324575424 -17.5287246704 -24.8519535065 11.151461035 -17.731882669 -29.8445446491
-5.52087593079 -5.30966615677 -4.83662796021 -4.698474437 -8.79105275869 -1.3432623148
-34.9151191711 -8.80720901489 18.1723670959 -38.833904624 -11.5663694143 16.7475320697
-15.7159576416 16.5575790405 -22.615026474 -14.7707331777 15.9790485352 -17.739387989
2.49800086021 -3.59472107887 -6.69200801849 4.93085384369 -6.65772658587 -3.5776501298
18.9687633514 0.477352499962 -8.4224729538 19.1610903479 3.01453745365 -4.11832350492
-26.6914997101 -8.15560340881 25.1132526398 -31.117624104 -8.20308040828 27.4385846555
8.39510345459 16.9401092529 -24.3078994751 10.5432144701 21.4535857439 -24.4268549792
-10.6487951279 13.434969902 -20.0944633484 -12.709562093 17.2835768461 -17.6569518149
13.5548248291 10.5562286377 -21.9671478271 13.5752908289 10.6164726354 -16.9675528407
-22.1705532074 4.88316869736 -2.69761800766 -22.9249852151 5.01729770005 2.24331736565
22.4608345032 1.34102845192 -10.1968812943 23.0204514861 5.88693493605 -8.1914973259
-12.0687818527 -16.2446689606 -11.413936615 -7.63804793358 -15.9004779533 -9.12262067199
3.00908184052 6.4074306488 -9.07484531403 2.00966632366 10.0123040676 -5.75730770826
18.5521469116 -19.0064868927 -24.9897384644 18.4319419079 -19.1816473976 -29.9852234125
-4.43931627274 0.763060390949 -0.724107921124 -2.3499918282 2.62067684531 3.42124849558
21.870803833 0.820290327072 -25.6977024078 21.7703143321 0.662146817893 -30.6941905022
-5.74079322815 4.91048526764 -14.3665971756 -5.12244171649 7.8802613616 -10.3919180632
19.6916179657 -1.18395137787 -14.9086341858 20.690570429 -0.782678864896 -19.7913668156
15.6469230652 7.39534139633 -25.8002853394 15.6461690652 7.33138139825 -30.7998764515
