ply
format ascii 1.0
element vertex 946
property double x
property double y
property double x_origin
property double y_origin
property int lab
end_header
2531.761815 5377.121136 2367.165399 5366.098212 0 
2529.226404 5372.249069 2367.138449 5366.087406 0 
2455.235475 5365.815264 2367.112139 5365.753136 0 
2451.913153 5361.119396 2366.94966 5365.838409 0 
2450.067815 5358.911092 2367.079121 5365.99338 2 
2452.989993 5355.851978 2367.236413 5366.103078 0 
2458.824963 5352.166949 2366.890265 5366.031951 0 
2899.229948 5264.968932 2366.784543 5366.241763 0 
3001.840069 5225.199943 2367.089974 5365.816473 0 
2873.199011 5236.978424 2367.153878 5366.184486 0 
2864.043688 5222.016017 2367.187622 5366.206841 0 
2863.885414 5187.887282 2366.795251 5366.203229 0 
2928.048374 5145.124371 2366.946609 5365.788367 0 
2834.22635 5164.933022 2367.141445 5365.801312 0 
2726.849971 5196.78171 2367.083263 5365.829919 0 
2720.000643 5186.117807 2366.821681 5366.090712 0 
2693.067749 5187.161656 2367.157184 5366.01676 0 
2563.890079 5249.061063 2366.951246 5366.183767 0 
2526.82708 5263.888868 2367.140608 5365.962494 0 
2446.02615 5312.185859 2366.915722 5365.824524 0 
2428.06023 5321.112331 2366.862891 5366.03658 2 
2426.795354 5319.754336 2367.087893 5365.895325 0 
2425.786046 5317.921156 2366.975243 5366.036688 0 
2423.788963 5315.046925 2366.8774 5366.106712 0 
2421.95858 5313.784584 2366.873472 5366.09866 2 
2419.095647 5314.074718 2367.032427 5366.172727 0 
2412.213586 5317.923035 2366.885221 5365.989735 2 
2409.858894 5318.050943 2367.064259 5366.169124 2 
2399.913274 5325.17715 2366.955704 5365.958628 2 
2397.181485 5326.793597 2367.103953 5366.217531 0 
2392.964753 5328.829196 2367.00422 5366.003716 0 
2391.12612 5330.13162 2366.860427 5365.834701 0 
2389.166204 5330.983899 2367.183361 5366.011852 0 
2384.808617 5334.965787 2366.934579 5365.772203 2 
2382.138822 5337.0698 2367.011939 5366.247716 2 
2380.870743 5337.826198 2367.166841 5366.034017 0 
2378.753347 5338.872545 2367.242645 5366.184833 0 
2377.916142 5339.096598 2367.152364 5366.130895 0 
2377.175794 5339.906583 2366.884611 5366.051914 0 
2375.788203 5339.995038 2367.136615 5366.204407 0 
2375.228937 5341.069976 2366.966259 5365.787555 0 
2372.785763 5342.150838 2366.809758 5366.174586 0 
2371.970637 5343.071696 2367.172302 5366.09138 0 
2371.147894 5343.089143 2366.875398 5366.151241 0 
2370.211688 5343.868043 2367.086074 5365.87783 0 
2369.214641 5343.988437 2366.758725 5366.140435 0 
2368.145021 5344.893336 2366.942349 5366.183224 0 
2367.138374 5344.828964 2367.137631 5366.117311 0 
2366.14894 5345.853889 2367.154866 5366.184704 0 
2364.754727 5346.214624 2367.109289 5365.975364 0 
2364.03632 5347.031592 2366.816744 5365.934214 0 
2362.870735 5346.942142 2366.835455 5365.832423 0 
2362.060185 5348.171529 2366.960253 5366.024826 0 
2360.909966 5348.968978 2366.915261 5365.804987 2 
2361.112314 5349.10761 2367.23821 5366.000688 2 
2360.186574 5349.125841 2366.867999 5366.085514 2 
2360.229731 5348.772865 2367.020218 5366.234458 2 
2359.237488 5348.879507 2366.959822 5366.023808 2 
2359.161099 5349.026566 2367.208022 5365.781834 2 
2335.218708 5307.793477 2366.864256 5366.028893 1 
2074.215006 5013.074509 2366.803719 5365.874972 2 
2073.793487 5032.96898 2366.929959 5366.155801 0 
2107.826589 5090.918169 2366.906489 5365.763163 2 
2098.794011 5099.024487 2367.098678 5365.773741 0 
2088.047352 5104.868895 2366.758199 5366.03484 0 
2173.998403 5196.968021 2366.808648 5365.909501 0 
2172.244587 5205.766671 2366.941335 5366.213295 0 
2164.810148 5209.055591 2366.992188 5365.775154 0 
2156.880101 5214.045907 2366.900126 5365.923588 0 
2148.764887 5218.080085 2366.829389 5365.841476 0 
2132.248255 5226.985877 2366.85464 5365.792265 0 
2208.760364 5280.203317 2366.816006 5366.057716 2 
2223.822213 5293.824205 2366.842557 5366.070615 0 
2229.042226 5301.901205 2367.230117 5366.036812 2 
2225.917876 5304.921452 2367.000107 5365.978023 0 
2220.227043 5308.242295 2367.003177 5365.857144 0 
2228.038202 5317.153303 2367.030731 5366.053089 0 
2229.983388 5322.11012 2367.144565 5365.981643 0 
2234.845997 5328.249205 2367.023908 5365.856361 2 
2230.202522 5331.089915 2367.164078 5365.774735 0 
2223.16412 5333.756634 2367.09535 5365.956346 0 
2215.907839 5337.075467 2367.243158 5366.075715 0 
2209.246918 5340.993265 2366.803738 5366.223962 0 
2201.985561 5345.056916 2366.831105 5365.773763 2 
2252.960219 5356.111837 2367.076852 5366.193607 2 
2252.971956 5358.971417 2366.92525 5366.067953 0 
2255.970622 5363.199158 2367.174315 5365.923144 0 
4.039072791 5482.088393 237.9478788 5451.953193 0 
8.095027114 5488.793229 238.1595381 5451.752866 2 
174.1186955 5488.152696 238.0785814 5452.115614 2 
175.8959614 5489.13232 238.0895756 5452.131522 2 
175.9392354 5491.170681 238.1552848 5452.149454 2 
177.0325175 5492.982137 238.0930616 5451.754474 0 
178.2035537 5494.768312 238.0724274 5451.924176 0 
179.2174701 5497.996742 238.0973196 5452.006543 0 
188.835135 5492.795198 238.2097355 5452.180162 2 
196.8384272 5489.119274 238.1830286 5452.207123 0 
201.0219697 5487.01161 238.0727367 5452.167931 0 
206.8939297 5483.912312 238.0494531 5452.083165 0 
208.8329933 5482.954738 237.9826194 5452.115511 0 
213.1868745 5480.825681 238.1199847 5452.140428 0 
214.8439928 5479.942412 237.8146037 5451.811463 0 
220.1891544 5476.161923 238.0680058 5451.774289 2 
221.2071217 5476.027741 238.2044515 5451.795549 2 
221.8970148 5476.13748 237.7526716 5452.168985 2 
221.8990901 5476.075408 238.0869158 5452.04302 2 
222.2377206 5477.886369 237.8761849 5451.820714 2 
223.0911068 5480.108804 238.1862247 5452.027981 0 
224.1844852 5482.056209 237.9184095 5451.778478 0 
224.2486215 5482.983013 237.8399409 5452.187776 0 
226.8949365 5488.157947 238.2120653 5451.852058 0 
227.935688 5490.166517 237.8976072 5452.082703 0 
229.053997 5491.900279 238.0016874 5452.203087 0 
230.225687 5493.838603 237.9961069 5452.213408 0 
230.974972 5496.122292 237.7841215 5451.816079 0 
231.981096 5498.220346 238.0940602 5451.915581 0 
233.0265555 5499.76247 237.9440592 5452.025177 0 
233.9954829 5502.034 237.9629529 5452.140419 0 
234.9419468 5524.925018 238.2424776 5452.127635 0 
237.8415351 5530.890085 237.9603376 5452.145532 0 
240.0403635 5535.212025 238.0986191 5452.016051 0 
242.8006281 5540.844726 237.9794582 5452.0256 0 
246.2170177 5547.01358 238.091679 5451.948114 0 
249.9839259 5554.935739 238.1136949 5451.760481 0 
279.9482088 5717.807754 238.0356584 5452.193692 2 
287.0917542 5714.248611 238.084111 5451.783701 0 
294.9236296 5710.076589 238.1613358 5452.015165 0 
245.2166735 5479.871673 237.9106967 5452.007037 2 
244.8336983 5478.759316 237.7730876 5451.884326 2 
245.8540418 5479.002546 238.1599266 5451.82106 2 
246.7661255 5479.001606 238.0191732 5452.000051 2 
248.1873447 5478.882868 238.0105328 5451.885554 0 
249.9406222 5477.796191 237.8292452 5451.782376 0 
250.7948026 5477.163356 237.8160773 5451.968432 0 
251.9899449 5477.227413 238.2335968 5451.956618 0 
252.8490864 5475.894293 238.2136555 5451.932785 0 
253.9036093 5476.236743 238.0671111 5452.007651 0 
254.9892889 5474.977038 238.0787106 5452.005414 0 
256.2286432 5474.847884 237.7554658 5452.165988 0 
256.9807519 5474.015999 237.8015415 5452.171374 0 
260.0621898 5472.880787 238.2037504 5452.106992 0 
260.794143 5471.769828 237.8254245 5452.034088 0 
262.2472409 5471.809021 238.2407064 5451.846327 0 
262.9533148 5471.204362 238.029112 5452.106924 0 
264.191105 5470.846223 237.8645751 5451.930394 0 
265.0732608 5470.193286 238.1858083 5452.051904 0 
265.7911695 5470.191274 237.967892 5452.021921 0 
268.9572727 5468.019434 237.9432955 5451.769462 0 
271.1502202 5466.897046 238.1264548 5452.194363 0 
273.9168737 5466.201879 237.9784511 5451.914115 0 
274.7609007 5464.969157 238.0104419 5451.964216 0 
276.9235193 5463.789554 237.8211396 5451.864624 0 
278.8857771 5462.935715 238.0450182 5452.209038 0 
279.8790005 5461.980826 238.0109419 5451.92017 2 
279.9221006 5461.228834 238.1920913 5452.129373 2 
367.9982674 5472.885387 238.1488357 5451.898488 0 
366.0324327 5469.025291 237.8428509 5452.199306 0 
364.97717 5464.071302 237.8634211 5451.988071 2 
373.7904595 5461.123863 238.2022862 5451.963979 0 
392.1634169 5451.773426 238.0786031 5451.799194 2 
396.9591407 5447.873621 237.7582318 5452.088141 0 
395.1044477 5443.019174 237.7583111 5451.776548 0 
387.9980076 5429.200402 238.1559216 5452.246275 0 
382.8357893 5425.054757 237.8947628 5452.118222 0 
377.8300479 5415.987614 238.0675285 5452.057218 0 
375.8089156 5412.18095 237.7952885 5451.849375 0 
374.0548125 5408.247575 238.0633539 5451.968229 0 
370.7710006 5399.891957 238.0174234 5451.980141 2 
425.0155783 5372.025655 237.8182824 5451.870026 0 
454.794829 5349.826594 237.8965743 5452.042837 0 
561.776996 5287.802496 238.0391117 5451.862785 2 
317.1072532 5395.183874 238.2310073 5452.187301 0 
314.9214881 5393.048536 237.994519 5451.980404 2 
679.9794853 5086.039807 238.0797789 5451.784298 0 
352.0373823 5350.893133 238.0025273 5452.058383 1 
327.0350898 5367.769951 237.7885242 5451.800668 1 
317.045606 5372.856807 237.9206941 5452.090435 1 
312.9334001 5372.067268 237.8832716 5451.960396 1 
321.1197642 5357.172383 238.0731814 5451.977017 1 
464.1062578 5179.054189 237.9143185 5451.777746 0 
320.8527244 5345.158837 238.0081497 5452.08221 1 
313.948645 5347.837929 238.1165076 5452.236027 1 
311.9810614 5342.869035 238.0444101 5451.766151 1 
308.8889856 5339.082934 237.8168194 5452.184592 1 
293.1897409 5358.987513 238.0250265 5451.873141 1 
309.8047818 5321.158298 238.0835372 5452.174546 1 
361.0806814 5208.906719 237.9015635 5451.936939 0 
343.2109072 5228.065882 237.964685 5451.813632 0 
332.9747196 5233.222835 238.1458412 5452.173365 0 
327.8107633 5225.012349 238.1593918 5452.041825 0 
288.1313837 5310.953802 238.057976 5451.770369 2 
281.7867363 5314.124795 238.2049608 5452.226477 0 
276.8623088 5315.979987 237.8496183 5451.917091 0 
271.8882853 5319.183155 237.8416367 5452.218967 0 
267.839874 5318.9932 237.9059058 5451.800781 2 
263.8090823 5313.120591 237.8644126 5452.033802 0 
261.0934256 5302.760254 237.9571664 5452.154189 0 
256.0226027 5305.866558 237.9460137 5451.903986 2 
252.0703601 5300.75399 237.9243556 5452.107096 0 
248.1287851 5293.879316 238.0835736 5452.241094 0 
243.1093036 5291.183192 237.9081846 5452.247589 0 
232.1163473 5277.999821 238.2165556 5452.206221 0 
226.2430215 5266.872461 237.7570023 5451.802104 0 
207.2430523 5125.871415 238.0859057 5452.086478 0 
197.8816689 5136.793072 237.9906668 5452.154272 0 
214.9096302 5307.18668 237.8082579 5452.22999 2 
210.1906702 5308.982613 238.0870867 5452.069455 0 
206.1119298 5310.92066 238.0605492 5451.971233 0 
201.8538522 5313.218734 237.9688223 5452.220199 0 
197.968555 5314.935378 238.1764207 5451.961577 0 
194.0578393 5317.183423 238.0136804 5452.050892 0 
189.804838 5318.849586 237.8873695 5451.936507 0 
185.8926581 5321.128036 237.8407784 5452.052288 0 
186.0647167 5333.899036 238.0322787 5452.005387 2 
183.1316498 5334.869365 237.8248422 5451.99358 0 
179.0400258 5338.135391 238.2148129 5452.143878 0 
176.1041251 5338.933635 238.1140773 5451.82268 0 
166.119013 5332.040498 238.0342567 5451.926852 0 
161.973921 5333.797937 238.2277439 5452.028759 0 
144.8975232 5314.865113 238.2152659 5452.040181 0 
62.24314957 5209.806044 237.8424696 5452.057866 0 
50.9550807 5211.124748 237.8132532 5451.83673 0 
42.24411375 5215.888095 238.08031 5452.03414 0 
32.77348673 5220.045123 237.9280174 5452.127612 2 
107.228758 5321.792095 238.200292 5452.097771 0 
116.0825928 5338.984549 237.7746233 5451.806514 0 
120.0324858 5348.752367 238.0852729 5452.180009 0 
115.8674805 5351.050539 237.9701902 5451.86063 0 
111.1065832 5354.06266 238.1684964 5451.811664 0 
105.9374081 5356.23175 237.8983943 5451.931522 0 
100.8698449 5359.228704 238.2156614 5451.893332 0 
96.02382714 5361.893679 237.7709435 5452.002585 0 
83.93577355 5368.221235 237.8503561 5451.768366 0 
78.95578414 5370.874979 237.8248802 5452.23827 0 
71.87734657 5374.160153 238.1682788 5451.994827 0 
65.96069179 5377.888469 238.1054571 5451.817275 0 
59.20112878 5381.023953 237.8789388 5451.888537 0 
88.00570301 5399.027333 238.0700587 5452.125548 2 
94.00603741 5406.03572 237.7688796 5451.779865 2 
90.17939885 5408.789823 238.0324497 5451.865172 0 
18.76105859 5396.132806 237.8835387 5451.966843 0 
23.75778519 5404.958419 237.9551126 5451.885132 0 
2.86857191 5422.873391 238.1299588 5452.079264 2 
3429.01186 8578.985416 3505.146539 8577.962989 1 
3422.759369 8580.775477 3505.101526 8578.015072 1 
3421.052811 8583.921585 3504.89062 8577.808848 1 
3428.207305 8585.9095 3504.838713 8578.136704 1 
3420.949323 8589.121162 3504.751876 8577.960382 1 
3437.003968 8588.885415 3505.177224 8578.011753 1 
3433.093834 8591.882337 3505.146885 8578.212406 1 
3422.005728 8597.026844 3505.041669 8577.767589 1 
3419.76226 8599.938208 3504.980578 8577.771629 1 
3428.963685 8599.832104 3505.036701 8577.766496 1 
3428.003689 8603.177322 3504.825344 8577.960994 1 
3239.836822 8682.914057 3504.847698 8578.036145 0 
2956.785219 8857.849574 3505.246526 8578.039187 2 
3232.984989 8729.173751 3504.80094 8577.828822 0 
3252.806088 8727.197825 3504.791228 8578.061816 0 
3256.974669 8736.082898 3505.079405 8577.986928 0 
3069.771106 8894.809983 3505.008557 8577.984791 2 
3083.892088 8905.795259 3505.001287 8578.145777 0 
3099.22258 8915.076631 3504.856771 8577.809402 0 
3114.240688 8923.954468 3505.095547 8577.775906 0 
3128.054042 8932.092073 3505.065093 8577.789031 0 
3057.015824 9028.116033 3504.867853 8578.071912 1 
3129.063858 8979.909082 3504.883728 8577.788526 0 
3154.241979 8977.213133 3505.025455 8577.763085 2 
3161.773117 9051.784012 3504.997876 8577.915204 0 
2762.829271 9750.249163 3504.810981 8577.801851 0 
3214.075794 9070.917752 3504.861253 8578.066482 2 
2883.12222 9713.2068 3505.092388 8577.926262 2 
2930.048873 9709.907482 3504.965293 8577.814697 0 
3006.773515 9640.083146 3505.136609 8578.087373 0 
3036.242228 9662.770337 3505.125899 8578.234207 0 
3078.23347 9764.901354 3505.247292 8577.756587 1 
3113.935366 9785.995167 3504.921791 8578.014636 0 
3334.99433 9241.982772 3505.066487 8577.820125 0 
3361.150524 9224.17774 3505.136607 8578.022744 0 
3384.13454 9212.978995 3505.199006 8577.933412 0 
3483.136477 8717.914299 3504.998109 8578.159991 2 
3492.247445 8712.884718 3504.997364 8578.239673 0 
3495.905055 8710.873263 3505.22388 8577.888525 0 
3501.024617 8708.221172 3504.895112 8578.209982 0 
3504.966339 8706.066903 3504.974619 8578.210669 0 
3508.799675 8702.791106 3504.780794 8578.200199 2 
3513.218846 8710.167401 3504.972943 8578.103385 0 
3517.896395 8717.921949 3504.786798 8577.782872 0 
3522.086248 8720.034907 3505.192863 8578.083693 0 
3527.169625 8716.940227 3505.073366 8577.82468 0 
3531.06349 8720.047246 3504.963205 8577.838107 0 
3539.018418 8734.108317 3504.798089 8578.234757 0 
3546.92522 8745.022708 3505.195426 8577.974895 2 
3634.063814 9021.226221 3504.925094 8578.03266 0 
3646.143621 9013.148037 3504.886045 8577.790017 2 
3684.819986 9079.922843 3504.822889 8578.156234 2 
3599.20775 8815.765752 3504.989927 8578.127376 2 
3626.955979 8801.813294 3505.202056 8577.769469 0 
3637.11054 8801.91526 3504.857576 8577.878958 2 
3596.773577 8722.905665 3504.863715 8577.948797 2 
3601.178373 8720.809141 3505.173692 8577.992187 0 
3615.785362 8713.848786 3504.774847 8578.178983 0 
3627.246823 8707.910892 3505.219 8577.816809 0 
3668.083735 8740.791888 3505.223043 8578.041486 0 
4055.80764 9064.962971 3504.918861 8578.013619 0 
4182.026264 9137.870917 3505.033088 8577.886804 0 
3872.036177 8864.140664 3505.015762 8578.059754 1 
3866.796329 8841.129477 3504.758551 8578.224702 1 
3890.188619 8840.182243 3504.966889 8578.223981 1 
3896.781029 8827.991736 3505.152964 8577.777852 1 
4017.152628 8881.121963 3504.844661 8577.986364 0 
3974.163851 8835.817704 3504.777849 8578.221491 0 
3985.030675 8804.946711 3504.98511 8577.806939 0 
4429.067628 8978.768197 3504.943743 8577.853805 0 
3941.158861 8751.209506 3505.163559 8578.20519 0 
3930.088983 8731.17211 3505.179892 8578.027601 0 
3943.104352 8720.896781 3505.001582 8578.135381 0 
4017.138517 8709.904545 3505.163233 8578.041146 0 
4039.776509 8680.757893 3504.777509 8578.19036 0 
4102.825597 8653.805359 3505.161851 8578.106272 2 
4121.00207 8636.896961 3505.163211 8577.819697 0 
4191.915158 8621.856955 3504.923502 8577.824019 0 
4192.816461 8599.837061 3504.779209 8578.155443 0 
4344.75917 8578.209101 3504.933045 8578.113523 0 
4333.855882 8552.184627 3504.998904 8578.244399 0 
4374.839172 8523.912136 3505.035545 8577.865681 0 
4362.92003 8497.063054 3504.80604 8577.995627 1 
4216.118413 8466.217891 3504.851899 8577.870482 0 
4216.864852 8442.765111 3504.940179 8578.03001 2 
4359.872066 8359.113681 3505.104029 8577.938526 1 
4345.200742 8334.133238 3504.84397 8578.209912 1 
4602.092338 8222.027014 3505.073435 8578.19822 0 
4183.961641 8333.822339 3505.192619 8578.050813 0 
4172.984476 8313.978164 3505.166494 8578.154505 0 
4163.791218 8293.222534 3504.900132 8578.159631 0 
3976.190425 8339.002032 3504.780113 8577.805277 0 
4489.017143 8036.970292 3505.085286 8578.139208 0 
4136.833974 8204.939315 3504.827734 8577.784715 0 
4125.822553 8184.921704 3505.244628 8578.164891 0 
3699.198718 8447.068063 3505.113111 8577.910359 1 
3704.140402 8434.05573 3505.211172 8577.874878 1 
4064.783894 8144.127666 3504.779383 8577.825112 0 
3687.1002 8426.929515 3505.234743 8578.040625 1 
3675.181547 8428.764856 3505.095902 8577.94869 1 
3681.985148 8411.931188 3504.837898 8578.069122 1 
3730.120504 8321.915633 3505.103837 8578.193056 0 
3719.087337 8302.098465 3505.107947 8578.036055 0 
3712.916528 8291.971059 3505.196414 8577.80693 0 
3976.776789 7884.157587 3504.931808 8577.810683 0 
3843.035253 8044.961191 3504.885796 8577.885453 0 
3817.140707 8050.870538 3505.176079 8578.072254 0 
3787.885394 8064.021981 3504.770944 8578.120543 0 
3777.203169 8044.858842 3504.939664 8578.073673 0 
3792.024474 7969.793502 3505.016729 8577.861811 0 
3768.141967 7969.874676 3505.147866 8577.808495 0 
3750.095735 7899.09428 3504.865426 8578.122524 0 
3729.001867 7888.047234 3505.183207 8577.78712 0 
3784.758425 7614.819003 3504.922573 8578.149132 2 
3701.939541 7809.848652 3504.971386 8578.074936 0 
3677.120633 7810.992329 3504.945478 8578.073802 0 
3731.101171 7393.135143 3504.897474 8577.875645 0 
3682.178644 7466.164203 3504.987456 8578.070612 2 
3613.78888 7716.885321 3505.129107 8578.134615 0 
3581.229602 7776.244533 3505.007139 8577.981469 2 
3538.041767 8058.940346 3505.018589 8578.050192 0 
3505.009349 7584.191162 3504.949324 8578.19889 0 
3443.789814 7602.17071 3505.023826 8578.160447 2 
3374.913039 7543.219304 3504.984249 8577.76421 1 
3330.104446 7657.131723 3504.889855 8578.033091 0 
3289.045926 7608.12731 3504.853702 8578.084806 0 
3307.762632 7811.232809 3504.969421 8578.242234 0 
3286.227342 7824.226559 3504.973702 8578.019109 2 
3226.916905 7720.242291 3504.819301 8578.176254 0 
3150.183454 7590.018625 3505.125144 8578.223268 2 
3229.939335 7883.89897 3505.133715 8578.102374 1 
3212.868273 7901.867964 3505.116584 8578.222719 1 
3336.249687 8217.756439 3505.00581 8578.045613 0 
3324.133749 8223.109512 3504.88042 8578.146381 0 
3335.092321 8290.09984 3505.138615 8578.069663 0 
3325.076399 8295.862317 3504.838772 8578.243304 0 
3306.854609 8304.908074 3505.169558 8577.788062 0 
3270.176699 8275.044702 3504.76133 8577.866034 2 
3424.193672 8482.145046 3505.218409 8577.811945 0 
3428.76301 8492.084993 3504.784665 8577.762697 2 
3425.091431 8494.040475 3505.05831 8577.975181 0 
3421.899987 8496.188729 3504.871562 8578.242308 0 
3418.03857 8497.760176 3505.061972 8577.864969 0 
3411.872494 8501.150744 3504.858273 8577.977102 0 
3407.808818 8503.777832 3505.015164 8578.235517 0 
3404.072534 8506.026495 3504.851551 8578.016206 0 
3400.921541 8507.81996 3505.078151 8577.93455 0 
3393.154952 8512.112815 3504.947247 8577.996384 0 
3127.90329 8400.755557 3505.221564 8578.053277 2 
2757.194286 8253.843126 3505.045585 8577.982856 0 
2772.853302 8287.857557 3505.097824 8577.975796 0 
2805.758302 8326.206098 3505.202898 8577.81712 0 
3104.233929 8461.968063 3504.802637 8578.056463 1 
3102.244558 8474.904188 3504.822669 8577.916098 1 
2862.974148 8434.15082 3505.100648 8577.879101 1 
3037.013635 8487.797895 3505.125485 8578.166925 1 
3026.803451 8502.097049 3504.970202 8578.247737 1 
3069.190175 8522.765788 3504.980593 8577.793477 0 
2919.873345 8540.828417 3505.019273 8577.881647 2 
3422.784515 8575.972171 3504.948766 8577.768444 1 
4363.190234 7077.001403 4417.074908 7076.184791 0 
4354.155592 7079.147577 4416.85089 7075.87974 0 
4350.048397 7081.201538 4417.008841 7075.812032 0 
4333.249432 7083.884325 4417.228958 7075.802884 0 
4326.231374 7087.94916 4416.800621 7076.171549 0 
4318.964948 7092.031214 4417.215026 7076.088293 2 
4318.109631 7094.984299 4417.21994 7076.144146 2 
4310.20647 7099.918706 4417.162591 7076.146704 0 
4268.17011 7114.987499 4417.081496 7076.075701 0 
4270.885076 7119.182385 4417.205441 7076.183472 2 
4253.133923 7129.964282 4417.245504 7076.133355 0 
4205.098607 7160.224462 4417.186239 7076.079981 0 
4207.923622 7167.23686 4417.001529 7076.13857 0 
4207.018074 7174.966555 4416.976863 7075.877706 2 
4156.200854 7209.946803 4416.771852 7076.157325 1 
4208.115509 7191.184443 4417.054029 7076.035618 1 
4195.921942 7206.885524 4416.86132 7076.057017 1 
4194.81791 7217.816761 4416.990489 7076.201832 1 
4209.031042 7217.985994 4417.085188 7075.879649 1 
4104.960456 7304.021427 4417.209629 7076.134077 0 
4119.008287 7307.961159 4417.022647 7075.776361 0 
4239.177714 7224.24951 4416.904067 7076.128568 0 
4271.946312 7204.925919 4417.035893 7075.811821 0 
4287.860361 7196.839922 4417.09744 7076.032303 2 
4289.975446 7203.208759 4416.83932 7076.043356 0 
4292.77552 7209.07981 4416.995188 7076.056562 0 
4295.815804 7213.830376 4417.18621 7076.026259 0 
4298.101802 7219.14584 4416.910337 7075.860089 0 
4301.856999 7224.182984 4416.88645 7075.784712 2 
4290.182494 7251.040517 4417.163281 7075.878806 1 
4304.216436 7242.949174 4416.940627 7075.826797 1 
4376.039095 7140.788067 4417.1091 7075.764542 2 
4379.246826 7140.198421 4417.057897 7075.772345 0 
4384.02823 7136.803085 4417.078907 7076.094034 0 
4386.883461 7136.015118 4416.870293 7076.235263 0 
4389.910957 7134.03063 4416.845353 7076.017956 0 
4391.963614 7132.981803 4417.052668 7075.896107 0 
4394.77232 7130.965949 4417.024914 7076.238756 0 
4397.165123 7130.215541 4416.815553 7075.954218 0 
4399.753607 7129.174653 4416.96876 7075.750433 0 
4402.123074 7127.776657 4416.772778 7075.901304 0 
4403.829743 7126.101685 4417.245338 7075.963204 0 
4405.866803 7124.865631 4416.948467 7076.02776 0 
4408.146261 7124.04382 4416.795716 7075.859875 0 
4408.775623 7124.098384 4417.005982 7075.797944 0 
4410.814333 7122.780896 4416.786699 7076.229456 0 
4412.246437 7121.852252 4416.933675 7075.750044 0 
4413.776905 7121.152434 4416.750477 7076.149979 0 
4415.179092 7119.773256 4416.801283 7075.758834 0 
4417.124941 7118.79662 4416.972038 7076.241744 0 
4417.912252 7119.170505 4417.019504 7075.808513 0 
4418.964325 7118.06522 4416.918388 7075.989949 0 
4419.913605 7118.17437 4417.037892 7075.977938 0 
4422.205266 7117.074591 4416.957395 7076.201703 0 
4423.176844 7116.141069 4417.201747 7076.203749 0 
4424.043504 7115.202224 4417.103727 7075.972595 0 
4425.225479 7113.15501 4416.98143 7076.10042 2 
4426.20163 7113.203468 4417.092164 7075.863882 2 
4427.123973 7112.861668 4416.922395 7075.838298 2 
4429.176889 7116.090782 4417.078247 7075.840494 2 
4431.015153 7116.866139 4417.068432 7075.970419 0 
4432.19073 7116.775827 4416.922121 7076.117574 0 
4433.166896 7115.873868 4417.071322 7075.960399 0 
4433.826092 7114.92505 4417.182994 7075.801571 0 
4435.830059 7113.914424 4417.151991 7075.781689 0 
4436.867891 7113.994155 4416.895571 7076.241864 0 
4438.105824 7113.067966 4416.830162 7076.032713 0 
4438.908748 7113.158409 4417.123207 7076.173901 0 
4439.774548 7111.941639 4416.894319 7076.215278 0 
4441.967465 7111.06644 4417.082852 7075.884361 0 
4443.190308 7110.904175 4417.09476 7075.7664 0 
4444.079224 7110.027755 4416.817971 7076.159283 0 
4445.192178 7109.219962 4417.190973 7075.81007 0 
4446.964118 7107.836544 4416.801934 7075.819942 0 
4448.15451 7106.882097 4417.102655 7075.813258 2 
4447.790506 7106.975861 4417.237158 7075.815054 2 
4495.1675 7144.881478 4416.780332 7075.884965 0 
4496.197918 7142.113184 4417.019326 7076.138227 0 
4497.767359 7138.864086 4417.154627 7076.096583 0 
4499.14184 7137.222598 4417.005867 7076.084019 2 
4564.19256 7175.94684 4417.144089 7075.906678 0 
4566.033384 7171.196023 4416.97662 7075.937893 2 
4583.82812 7175.829274 4417.001151 7075.868625 2 
4604.055135 7179.98831 4416.933679 7075.972635 0 
4984.119787 7364.964011 4417.1076 7076.067706 0 
4949.827196 7306.876926 4416.955932 7075.844555 0 
4945.991011 7285.860559 4417.191138 7075.882852 0 
4918.833157 7256.947005 4417.216871 7075.775717 0 
4911.143845 7237.11096 4416.932395 7075.927228 2 
4881.056983 7211.159015 4417.115122 7076.135102 0 
4798.238289 7173.866273 4416.753727 7076.043424 1 
4835.104583 7169.937406 4416.766059 7075.97437 1 
4687.151418 7128.123659 4416.792076 7076.228613 0 
4598.750584 7104.998008 4416.823168 7075.991596 0 
4582.108567 7096.764306 4417.124448 7076.191724 0 
4588.961311 7093.091318 4417.217441 7075.855155 0 
4596.952278 7087.899836 4417.032383 7075.759261 0 
4606.808851 7081.897505 4417.144363 7075.79714 0 
4616.013778 7076.14809 4417.090564 7075.868361 0 
4597.835497 7071.106623 4417.092731 7076.236914 0 
4566.980282 7067.134807 4417.215527 7075.980866 2 
4564.882816 7062.788695 4417.222462 7076.241383 0 
4561.803001 7058.09691 4417.183107 7076.014312 0 
4559.938229 7054.150548 4417.119467 7076.140507 0 
4557.800384 7049.901851 4417.149767 7075.859234 0 
4571.049356 7042.04413 4416.906374 7075.813134 0 
4572.94222 7036.246937 4416.931495 7076.027716 0 
4582.10356 7028.774226 4417.014631 7075.833842 0 
4595.159034 7018.980158 4417.064709 7075.791849 0 
4721.018853 6967.037171 4416.783232 7076.071854 0 
4715.884081 6958.216339 4416.836166 7076.07231 0 
4724.116886 6907.205633 4416.962816 7076.16727 0 
4549.857484 6996.862583 4416.776504 7076.15684 2 
4545.156713 6994.932878 4417.219974 7075.848933 2 
4535.929815 6995.901469 4417.126649 7075.783376 0 
4533.925695 6991.89128 4416.867218 7075.834729 0 
4532.121438 6987.181927 4416.876578 7075.890291 0 
4528.969098 6982.90981 4417.212145 7076.103179 0 
4526.876148 6978.798311 4416.925488 7076.243035 0 
4506.753945 6991.138305 4417.160304 7075.861429 0 
4495.750888 6997.186808 4416.768268 7076.157601 0 
4484.869686 7003.238242 4416.756533 7076.049501 0 
4476.889711 7007.133182 4417.082877 7076.065406 0 
4468.774462 7012.200095 4417.150134 7076.1459 2 
4467.132021 7010.776712 4416.78619 7075.851119 0 
4465.936522 7009.248336 4417.204298 7076.06267 0 
4464.796647 7005.879786 4417.055705 7075.800592 0 
4462.768091 7003.966009 4416.91202 7075.768979 0 
4461.902818 7000.930289 4417.176579 7076.022504 0 
4459.918531 6998.183113 4416.822005 7076.058241 0 
4458.066295 6994.154881 4416.873647 7076.090757 0 
4457.104976 6991.773781 4416.986657 7075.986997 0 
4454.800493 6989.022847 4417.088116 7075.987015 0 
4453.021183 6985.042414 4416.799685 7076.06783 0 
4451.1722 6982.10539 4417.118422 7076.190291 0 
4446.821399 6972.780442 4417.20927 7075.974217 2 
4474.960731 6849.135849 4417.24672 7076.129262 2 
4467.068962 6852.818725 4416.937503 7075.885257 2 
4461.223606 6847.06115 4417.226014 7076.078582 0 
4455.084931 6835.962671 4416.81558 7076.135424 0 
4444.235518 6860.153696 4416.872439 7076.006701 2 
4436.94611 6862.922124 4416.824532 7075.86831 0 
4429.777514 6867.192954 4416.808601 7075.848914 0 
4423.223396 6869.76787 4417.07313 7075.934127 0 
4417.153719 6874.069851 4416.813389 7075.972681 0 
4410.138576 6878.000893 4417.107937 7076.112182 0 
4403.812043 6881.083951 4416.940765 7076.146974 0 
4398.796622 6884.006344 4417.032399 7075.782141 0 
4392.91004 6886.154838 4417.038842 7076.106149 2 
4383.826963 6869.113374 4417.224459 7075.854477 0 
4364.056328 6797.78306 4416.953391 7076.029723 0 
4355.80093 6802.776521 4417.213851 7076.20465 2 
4323.096372 6751.77724 4416.92733 7075.984947 0 
4287.028133 6713.785268 4416.84713 7076.090176 0 
4252.119219 6661.037894 4416.98715 7076.165842 0 
4242.794238 6673.769549 4417.197983 7075.954278 0 
4235.174388 6689.986825 4416.810428 7075.75135 0 
4214.850199 6680.784887 4416.855827 7076.156527 2 
4329.817947 6931.059218 4416.93625 7075.868877 0 
4325.085739 6932.900101 4416.823527 7075.932111 0 
4320.927341 6935.000857 4417.167058 7076.205474 0 
4316.036125 6938.764188 4417.045649 7075.905344 2 
4374.052082 7021.7828 4416.821186 7076.09632 2 
4376.802349 7028.769169 4416.800599 7076.226737 0 
4384.005994 7041.861026 4417.228087 7076.106193 0 
4385.895913 7045.833914 4417.012719 7075.96386 0 
4389.143132 7051.198969 4417.082737 7075.978871 0 
4390.84907 7056.156264 4417.160982 7076.026411 0 
4390.907121 7057.07804 4416.981884 7076.193246 0 
4391.092228 7057.777534 4416.84859 7075.89431 0 
4390.810333 7058.919776 4417.24063 7075.862683 0 
4389.938945 7058.791229 4416.839419 7076.194938 0 
4388.902255 7059.817506 4417.051131 7076.048168 0 
4386.90142 7060.81385 4416.762028 7075.794553 0 
4383.762819 7062.094765 4417.023424 7075.861889 0 
4383.001028 7062.934406 4417.1383 7076.158149 0 
4380.762446 7063.870184 4417.101395 7076.104674 0 
4379.897717 7065.199985 4417.248984 7075.958051 0 
4378.869761 7065.239614 4417.070734 7076.058706 0 
4377.780843 7066.160153 4417.003644 7075.933098 0 
4376.227659 7066.804775 4417.231266 7075.87908 0 
4371.868625 7069.243294 4416.923632 7075.881444 0 
4370.088058 7071.197056 4416.993334 7075.839087 0 
4369.881462 7071.881633 4417.247236 7075.893907 0 
4370.001817 7073.098631 4417.248581 7076.149535 0 
1839.048616 7631.247564 1964.857586 7630.168377 0 
1839.237179 7635.178319 1964.977083 7629.768022 0 
1831.088472 7639.230727 1964.95112 7630.066131 0 
1819.785502 7643.932386 1965.195211 7629.904127 0 
1807.925679 7649.868843 1965.035572 7629.763738 0 
1791.815899 7657.778905 1964.852824 7629.94736 0 
1773.910539 7666.850061 1965.091268 7630.162356 0 
1751.198692 7678.089848 1965.06189 7629.997308 0 
1624.087413 7718.169476 1964.915685 7630.074592 0 
1441.097795 7783.142769 1965.092613 7629.936267 0 
1094.123496 7975.793733 1964.752398 7630.158998 1 
1608.976119 7799.197609 1964.813125 7630.151798 1 
1586.816452 7823.098697 1965.165536 7629.882351 1 
1691.127602 7781.76836 1965.079711 7629.788141 2 
1787.868421 7734.920979 1965.200497 7629.817113 2 
1791.760827 7740.012387 1965.064421 7630.09824 2 
1802.931863 7740.230106 1964.922832 7629.779658 0 
1806.122874 7745.765445 1964.965925 7629.99637 0 
1813.809178 7762.968323 1964.905368 7630.035296 0 
1816.915932 7768.968493 1964.937095 7629.982384 0 
1819.81719 7774.85263 1965.114735 7630.194793 0 
1798.870991 7829.944446 1965.232934 7629.989412 2 
1814.115425 7825.183431 1965.056524 7630.126252 0 
1827.945818 7818.870945 1964.974492 7630.127682 0 
1839.851051 7814.147324 1965.15734 7630.223925 0 
1852.162769 7808.873266 1964.970295 7630.221947 0 
1862.091589 7805.125664 1965.007243 7629.757521 0 
1881.844157 7782.194338 1964.989905 7629.911347 2 
1893.796968 7781.85464 1964.85614 7629.917959 2 
1899.049086 7782.839074 1965.157371 7629.914511 0 
1905.772505 7778.963895 1964.790763 7629.968324 2 
1912.08484 7794.015255 1964.846006 7630.185891 0 
1914.912579 7800.753346 1965.159816 7629.825348 0 
1917.876612 7809.880111 1964.797295 7630.218201 0 
1921.755775 7819.054538 1965.225722 7629.849932 0 
1919.998875 7862.965628 1965.011279 7630.045843 0 
1929.070268 7859.11742 1965.213802 7629.869354 0 
1936.206494 7856.121173 1965.033865 7630.229 0 
1943.835068 7853.074628 1964.947324 7630.169907 0 
1964.839883 7842.043329 1965.105798 7630.002463 2 
1987.046676 7977.015614 1965.077811 7630.173287 2 
1998.145725 7987.125105 1965.141488 7630.1515 2 
2010.929643 7998.117211 1964.751431 7630.178518 0 
2031.832839 8058.012711 1964.974361 7630.153107 1 
2041.88013 8035.938164 1964.772461 7629.836624 1 
2154.809336 8480.056326 1964.815624 7629.894404 2 
2318.880954 9005.012948 1964.814311 7629.970837 0 
2333.806277 8900.170109 1965.2233 7630.102952 0 
2338.935722 8782.05111 1965.02624 7629.831447 0 
2321.926215 8619.917728 1965.232947 7630.105858 0 
2314.784939 8514.234378 1965.034377 7629.867778 0 
2337.997089 8490.758738 1964.770885 7630.127219 0 
2272.946902 8285.793345 1965.213844 7630.006238 0 
2174.099671 8040.779468 1965.150642 7630.230625 2 
2187.042415 8035.214953 1964.951462 7630.098692 0 
2142.135061 7928.924762 1964.951645 7629.820784 0 
2113.225872 7863.227885 1964.902231 7629.902087 0 
2091.895613 7816.885178 1964.757946 7629.930552 0 
2020.869556 7707.042323 1965.04833 7630.116645 1 
2020.051061 7702.069215 1964.993864 7630.247962 1 
2022.11256 7700.957708 1965.0042 7629.962232 1 
2023.987176 7697.904842 1964.942857 7629.779591 1 
2031.869794 7702.144319 1965.128284 7629.754856 1 
2122.81908 7788.829929 1964.825639 7629.794952 0 
2129.807813 7785.97787 1964.94704 7629.953426 0 
2146.113048 7790.954986 1965.133979 7630.232604 2 
2046.247308 7696.932309 1965.099249 7630.048369 0 
2038.751524 7683.843113 1965.046331 7630.114085 0 
2036.050821 7678.800532 1964.826316 7629.787997 0 
2033.955373 7674.019173 1964.817588 7630.075167 0 
2030.913491 7670.195872 1965.080023 7629.982572 2 
2031.775801 7668.155662 1965.027524 7629.833614 2 
2034.883532 7667.224564 1965.03704 7630.24658 0 
2042.92955 7661.921019 1965.229184 7629.926858 0 
2051.103328 7658.078433 1965.225228 7630.104852 0 
2054.171546 7656.021559 1964.968937 7629.972367 2 
2054.07209 7654.045253 1965.010364 7629.777464 2 
2052.814426 7650.077952 1965.102631 7629.977917 0 
2052.023824 7646.932654 1965.210489 7630.049625 0 
2050.838316 7643.988013 1965.133239 7629.971849 2 
2063.962578 7636.920279 1964.968429 7630.142128 2 
2120.091299 7634.947613 1964.818986 7629.944627 0 
2128.776045 7629.794214 1964.799479 7630.197591 0 
2139.065773 7625.018416 1964.919958 7629.887863 0 
2149.813669 7619.180322 1964.915327 7629.878095 0 
2173.008274 7610.767958 1965.106012 7629.782098 2 
2185.950612 7603.066501 1965.081724 7630.038929 0 
2188.804515 7594.964963 1964.760777 7630.017092 0 
2183.135242 7588.979206 1964.90922 7629.976541 1 
2179.176819 7581.978206 1965.171168 7630.202865 1 
2198.02242 7570.220647 1965.150456 7629.838193 1 
2176.989063 7568.820413 1964.976056 7630.052732 1 
2292.750735 7524.141383 1965.180828 7630.009009 2 
2345.159341 7494.03684 1965.041107 7629.859953 2 
2262.853341 7512.872831 1965.148882 7629.907856 2 
2026.087793 7604.159659 1965.174948 7629.973036 2 
2023.888865 7599.834168 1965.199576 7629.815684 0 
2022.062374 7597.120744 1964.768549 7629.834794 0 
2012.091391 7577.169005 1964.922986 7629.830454 0 
2011.239418 7575.149042 1965.133187 7630.240153 2 
2049.040425 7522.064014 1964.999162 7629.949765 0 
2046.850854 7517.790269 1965.059718 7629.954195 0 
2043.9131 7512.9586 1965.112051 7629.750893 0 
2031.868259 7523.036998 1964.973929 7630.007124 0 
2025.121166 7526.923505 1965.072808 7629.93354 0 
2017.794249 7532.091357 1965.018334 7630.13564 2 
2016.010362 7531.19132 1965.216094 7629.99978 2 
2013.090362 7527.099281 1964.989933 7629.880786 2 
2006.913295 7533.239095 1965.080552 7630.014149 0 
1997.779364 7537.89027 1965.218344 7629.942464 2 
1995.09887 7536.080394 1964.943357 7630.217129 0 
1992.867393 7532.167285 1964.974253 7630.238559 0 
1985.840791 7519.797061 1964.922099 7629.885039 0 
2027.138419 7241.190432 1964.770679 7629.898781 2 
2039.131752 7046.236773 1965.148561 7629.972113 0 
2019.086054 7056.888493 1965.1029 7630.249349 0 
1982.877588 7343.933451 1965.013498 7629.906952 1 
1974.073721 7345.981841 1965.099416 7629.922591 0 
1964.812235 7350.792772 1964.88972 7629.929628 0 
1956.210058 7356.113973 1964.918186 7629.800848 0 
1948.161034 7361.090285 1964.935888 7630.049453 0 
1940.030717 7364.956567 1965.198234 7629.912469 0 
1931.943341 7369.096794 1965.134582 7629.779395 0 
1924.235288 7373.987482 1964.778744 7629.862876 0 
1917.170933 7378.042241 1965.019828 7629.994654 0 
1908.774082 7381.869243 1965.167245 7629.836318 2 
1805.912016 7010.806965 1965.015945 7629.872073 0 
1863.170937 7282.184132 1964.922922 7630.081971 1 
1770.024417 7030.10881 1964.881424 7629.805134 0 
1746.815377 7022.829658 1964.967603 7630.008717 0 
1923.176452 7525.852185 1965.038112 7630.16174 1 
1923.089667 7535.066856 1964.774616 7630.0106 1 
1918.859097 7532.044443 1964.755254 7629.883179 1 
1915.163687 7532.172499 1964.969497 7629.825702 1 
1912.229464 7535.235442 1964.947776 7630.150401 1 
1909.169574 7536.120698 1964.982373 7629.943991 1 
1383.979507 6713.113797 1964.999125 7630.044884 0 
1466.193455 6895.216728 1964.803601 7630.119907 2 
1595.818913 7121.091713 1965.031647 7630.15858 2 
1688.908569 7275.056262 1964.919179 7630.017666 2 
1680.850706 7285.924434 1965.150845 7629.764392 0 
1776.846933 7417.870342 1964.840095 7629.826397 0 
1807.855784 7464.037871 1965.226798 7629.775358 0 
1819.908568 7485.95917 1964.969349 7630.138076 0 
1828.822967 7503.218474 1964.93296 7629.766422 0 
1842.185201 7528.986561 1965.136329 7629.754114 0 
1847.828274 7539.917975 1965.162693 7629.986844 2 
1853.224238 7549.831873 1964.75451 7629.824943 0 
1857.006306 7558.155355 1964.839336 7630.103239 0 
1860.775696 7564.929431 1965.179636 7629.88148 0 
1865.217301 7572.156433 1964.906838 7629.87587 0 
1867.865604 7578.126187 1964.763945 7629.938571 0 
1871.094661 7582.946905 1964.954993 7630.029862 0 
1873.183466 7587.841321 1965.033976 7629.761741 0 
1875.009297 7591.946669 1964.998584 7629.983534 0 
1878.028542 7596.003094 1965.058477 7629.784848 0 
1879.908448 7600.147813 1965.138087 7629.934145 0 
1881.827244 7604.067723 1965.065625 7629.794545 0 
1885.974156 7608.222463 1964.920415 7630.08976 2 
1886.09865 7609.93436 1964.77833 7629.943311 2 
1877.131265 7616.983323 1965.223173 7630.064731 0 
1874.074644 7619.007148 1965.076472 7629.833941 0 
1859.203817 7626.825056 1965.067475 7629.982359 0 
2854.07815 8418.875952 4085.017207 8378.236598 0 
3675.773765 8404.905295 4084.920743 8377.851009 1 
3699.223018 8415.236368 4084.895554 8377.947174 1 
3708.208831 8427.065968 4084.786934 8378.057481 1 
3704.750329 8438.815264 4084.750792 8378.131594 1 
3395.048587 8511.223964 4084.946325 8377.873232 0 
3070.981113 8639.772797 4084.957172 8377.93493 2 
3430.847853 8591.774647 4085.167289 8378.176003 1 
3237.9006 8683.934496 4085.162601 8377.924365 0 
3257.089791 8737.833344 4085.025374 8378.062809 0 
3006.819711 8888.170928 4084.759983 8377.778542 0 
3069.986896 8896.796916 4085.086024 8377.987225 2 
3104.862181 8919.086815 4084.868819 8378.160768 0 
3516.06078 8715.065144 4084.783999 8377.791893 0 
3535.087941 8727.991172 4084.976823 8378.185794 0 
3547.015819 8744.894112 4085.111796 8378.166419 2 
3630.078608 8709.024397 4084.840784 8377.918399 2 
3638.107741 8726.116159 4085.231208 8378.177452 0 
3678.037087 8737.241191 4085.205995 8377.773983 2 
3685.788107 8754.042018 4085.011208 8377.900288 2 
3642.878834 8821.130027 4084.811055 8378.189614 0 
2857.94517 9686.845055 4085.231506 8377.783111 0 
3318.086226 9249.958329 4085.218905 8377.852045 2 
3426.10244 9286.080701 4084.768464 8377.931049 0 
3648.855098 9019.859249 4085.099448 8378.212839 0 
3657.225407 9055.080656 4085.140291 8378.012494 0 
3732.071847 8977.096286 4085.036477 8378.109954 2 
3759.888304 9015.797685 4084.760242 8378.017138 0 
3872.177711 8829.821297 4084.956752 8377.872882 1 
3934.916352 8725.938258 4084.905993 8377.752578 0 
3967.146587 8706.874897 4084.854624 8377.999027 2 
3974.205598 8718.873088 4085.180076 8377.810696 0 
3981.982337 8733.029524 4084.773535 8377.957744 0 
4025.86018 8688.163826 4085.220238 8378.182027 0 
4037.010111 8683.006715 4085.041981 8378.148415 0 
4048.0544 8666.052222 4084.915553 8377.982111 2 
4058.12352 8664.122305 4085.104993 8377.789872 0 
4066.810563 8661.760985 4084.79245 8378.20715 0 
4075.885882 8659.897074 4084.956177 8377.84148 0 
4093.020162 8656.886252 4084.902176 8377.752499 0 
4102.165776 8654.92571 4084.960243 8377.775956 0 
4112.839536 8674.930482 4085.207982 8378.099647 2 
4120.187196 8653.999963 4084.998063 8377.991596 0 
4122.802185 8623.163616 4085.223707 8378.175705 2 
4132.035921 8625.078699 4085.215577 8378.096484 0 
4148.089685 8625.758027 4085.053633 8378.225567 0 
4156.905101 8626.75981 4084.817047 8378.175263 0 
4214.896062 8780.969223 4085.177762 8377.811838 0 
4191.144933 8671.888005 4084.837794 8378.234469 0 
4193.068487 8652.795777 4085.084117 8378.005683 2 
4192.04574 8624.832179 4085.247279 8378.097925 0 
4193.245795 8608.220986 4085.02363 8378.031716 0 
4195.049686 8594.989206 4084.878199 8377.88937 2 
4203.997233 8596.181833 4084.864937 8378.152334 0 
4222.191642 8595.931984 4085.077596 8377.837705 0 
4232.151207 8595.005358 4084.899543 8378.04614 2 
4252.143364 8607.987338 4085.03061 8377.961851 0 
4255.033114 8596.864726 4085.217534 8377.828854 0 
4256.946905 8586.214813 4085.176779 8377.9427 0 
4265.1858 8582.950408 4085.224416 8377.985485 0 
4279.189615 8585.852615 4085.124855 8377.936848 0 
4321.784448 8616.239793 4084.839182 8378.226091 0 
4341.921777 8621.166778 4084.813795 8377.822984 0 
4373.922136 8632.963339 4085.119124 8377.8155 2 
4357.200676 8602.899734 4085.027351 8377.98379 0 
4222.01446 8477.994885 4085.062644 8378.211365 0 
4215.959698 8466.989423 4084.904066 8377.895498 0 
4214.189831 8460.878482 4085.130983 8378.129446 2 
4219.981097 8458.005838 4084.816294 8378.015545 0 
4224.995631 8455.905476 4084.991636 8378.167408 0 
4218.822254 8447.055431 4085.240391 8377.99439 0 
4217.76877 8441.109515 4085.05989 8378.219446 2 
4213.759249 8429.837241 4084.953237 8378.023709 2 
4221.082126 8427.765881 4084.985075 8377.791824 0 
4285.005303 8417.13914 4084.937321 8377.945134 2 
4313.767622 8414.818304 4084.82458 8377.998719 0 
4309.074143 8406.890874 4084.764265 8377.819774 0 
4306.04635 8399.005901 4085.237181 8378.118603 2 
4314.811332 8393.227572 4084.862994 8377.830102 0 
4692.087088 8398.172884 4084.799548 8378.096337 0 
4496.760125 8378.002785 4084.870046 8378.09225 0 
4505.018666 8365.105121 4085.134074 8377.773969 0 
4769.994261 8334.821395 4084.969103 8378.011883 0 
4338.8897 8355.043683 4084.760603 8378.213842 1 
4332.184557 8346.774868 4084.783616 8377.980907 1 
4342.030768 8337.770797 4084.84951 8378.092101 1 
4501.248369 8298.962504 4085.172203 8378.085457 0 
4493.885387 8287.221751 4084.931794 8377.895512 0 
4504.974536 8271.05184 4085.237762 8378.243202 0 
4604.906961 8227.121836 4084.76717 8378.151222 0 
4593.193231 8212.986273 4084.913105 8377.83293 0 
4587.779956 8196.923708 4084.796773 8378.214513 0 
4474.948576 8223.830388 4084.945419 8378.229344 1 
4183.851185 8336.04493 4085.071445 8377.849554 0 
4182.757433 8331.993647 4085.185011 8377.892821 0 
4180.965398 8328.866805 4085.038333 8378.189935 0 
4179.168645 8326.026094 4085.183136 8377.825606 0 
4177.89793 8324.200306 4085.226828 8377.841161 0 
4175.936579 8319.889933 4084.924092 8377.966535 0 
4175.063641 8316.970864 4084.931048 8377.762217 0 
4172.051253 8311.126468 4085.241561 8378.152438 0 
4171.921397 8307.063006 4084.751992 8377.928831 2 
4170.806654 8302.187003 4085.071651 8378.022052 0 
4168.803808 8298.859984 4084.961987 8378.222453 0 
4167.136078 8295.895123 4084.798059 8377.784008 2 
4163.845429 8293.774886 4084.87517 8378.032008 0 
4161.914819 8290.049261 4085.248544 8378.228461 0 
4160.770126 8286.929592 4085.240678 8378.071378 0 
4154.80606 8287.232239 4084.973816 8377.977457 2 
4154.045245 8283.975808 4085.156287 8378.101898 0 
4151.912811 8279.977939 4084.87395 8377.966619 0 
4148.087922 8272.085937 4084.939072 8377.974001 0 
4146.23106 8267.987131 4085.008009 8377.826489 0 
4146.012017 8247.133179 4085.108497 8378.176836 0 
4162.93244 8197.107041 4085.155297 8377.952566 0 
4146.786633 8206.145974 4084.773944 8377.842692 0 
4140.128213 8206.99776 4085.070149 8377.923458 2 
4136.223568 8202.976436 4084.775356 8377.886379 0 
4132.204375 8195.899307 4085.102998 8378.042297 0 
4127.235244 8186.79207 4084.766298 8378.216303 0 
4123.0292 8180.024307 4084.792792 8377.791217 0 
4135.907486 8056.151289 4085.218053 8378.089926 0 
4118.00833 8115.12335 4084.792492 8378.044962 0 
4106.019324 8149.816436 4085.137654 8377.897537 0 
4099.064196 8154.957803 4085.070995 8378.037763 0 
4092.18424 8159.096351 4085.174142 8378.138615 0 
4085.245658 8163.02714 4084.930912 8378.230902 0 
4078.069209 8165.94721 4085.197205 8377.84841 2 
4071.221517 8154.239997 4084.889627 8377.879003 0 
4062.141286 8138.85768 4085.218928 8377.899616 0 
4053.231029 8123.76142 4085.194578 8378.000353 0 
4041.827856 8106.082232 4085.14789 8378.142051 0 
4028.790035 8083.968884 4084.929814 8378.224275 0 
3995.815236 7982.853957 4085.112889 8377.810894 0 
3982.131096 7975.793801 4084.791795 8377.950306 0 
3941.991011 7885.239001 4085.048715 8377.962528 0 
3894.228998 7789.188342 4085.091531 8378.120284 0 
3829.796021 7668.060459 4084.7699 8377.777051 0 
3783.071879 7615.214478 4085.027404 8378.149734 2 
3689.046709 7461.925293 4085.041786 8378.086745 0 
3337.144178 6785.2216 4085.061019 8378.209413 0 
3446.825557 7123.923909 4084.770307 8378.206653 1 
2700.96771 5854.812102 4084.906959 8378.208721 0 
3849.801103 7982.205674 4084.921249 8377.780101 2 
3867.144016 8033.762779 4085.150385 8378.190037 0 
3855.073238 8040.170285 4085.217088 8377.895117 0 
3827.134762 8045.994492 4084.794851 8377.931472 0 
3815.169785 8052.086637 4084.768216 8378.063962 0 
3803.058237 8059.079236 4085.023376 8378.133794 0 
3790.753144 8065.043682 4085.090447 8377.970854 0 
3368.105785 7660.247405 4084.929575 8378.156888 0 
3318.203079 7656.100823 4085.186989 8378.097095 2 
3212.113603 7608.087374 4085.037133 8377.936841 0 
3261.007659 7696.004221 4085.081958 8377.892421 0 
3310.248712 7777.126809 4085.073893 8378.168497 0 
3849.963446 8208.092109 4084.982459 8377.771684 0 
3859.921345 8225.755835 4085.155477 8377.924489 0 
3869.049517 8241.995924 4085.145343 8377.905302 2 
3860.993329 8245.824918 4084.81219 8377.946408 0 
3852.175741 8251.249178 4084.793504 8378.039344 0 
3836.086552 8251.080636 4085.226185 8377.844211 0 
2909.834857 7869.058143 4084.986631 8377.833569 0 
3978.934952 8336.810524 4084.752066 8378.148398 2 
3980.152633 8340.984526 4085.170082 8377.823978 0 
3982.990361 8346.075559 4084.998467 8377.789878 0 
3987.821483 8349.89381 4084.94518 8378.064812 2 
3986.968728 8353.00737 4084.76122 8377.894469 0 
3982.006548 8355.804724 4085.183813 8377.8431 0 
3979.13536 8358.159997 4084.937311 8378.220217 0 
3973.96814 8361.173942 4084.803786 8378.153092 0 
3970.234467 8363.805852 4085.05149 8378.1371 0 
3310.040378 8303.971572 4085.211078 8377.780739 0 
2775.797132 8293.959545 4084.820617 8377.868614 0 
3155.103355 8348.015797 4085.183426 8377.822082 0 
212.7731671 6653.194646 492.9665509 6589.029716 0 
233.2493694 6656.900363 493.122816 6589.134729 0 
403.8103606 6614.810127 493.1049461 6589.028501 2 
404.2340694 6618.158732 492.9315925 6589.218536 0 
407.2145845 6621.233083 493.1056356 6589.004962 0 
410.9546553 6625.066713 493.0357009 6589.001787 0 
412.7762581 6627.106318 493.120401 6589.129613 0 
414.8721146 6629.053827 493.2016949 6588.895282 0 
416.9984729 6630.918246 493.1749972 6588.997842 0 
419.0686091 6633.047813 492.8825714 6589.12897 0 
442.1079402 6622.237518 492.9074703 6589.09201 2 
443.1462497 6623.089063 493.0605455 6589.110834 2 
444.0721456 6624.916181 492.8657965 6588.776801 0 
445.2328945 6626.151497 493.0285877 6588.759153 0 
447.007815 6627.898989 493.1387653 6589.12993 0 
448.2028157 6629.09046 492.7752113 6588.951289 0 
448.7587059 6630.200209 493.1991308 6589.077315 0 
450.9980217 6631.831702 492.9562848 6588.855962 0 
451.8192197 6633.113755 493.1979716 6589.215469 0 
452.9528179 6634.008517 493.0763035 6588.774964 0 
455.1746983 6636.1921 492.8017644 6589.157593 0 
