ply
format ascii 1.0
element vertex 946
property double x
property double y
property double x_origin
property double y_origin
property int lab
end_header
8066.887762 5262.030703 8068.814344 5263.217213 1 
8066.16059 5262.096762 8068.912359 5262.758654 1 
8065.954736 5261.812417 8068.834678 5262.770059 1 
8065.827563 5261.914026 8068.769126 5263.035513 1 
8066.10366 5262.228124 8069.144709 5262.839948 1 
8025.009316 5249.057773 8069.162927 5263.158961 0 
8050.85668 5258.756835 8068.819071 5262.765574 1 
8050.873037 5258.935002 8069.094715 5263.010799 1 
8056.215705 5261.159059 8068.978013 5263.126295 1 
8056.005821 5261.140372 8069.134948 5263.210557 1 
8056.202789 5261.219627 8069.230616 5262.780352 1 
8049.883653 5261.249742 8069.065865 5263.237312 1 
7994.227865 5255.960574 8068.827261 5262.987181 0 
7996.768348 5259.240188 8068.896142 5262.875028 2 
7997.247023 5260.965213 8068.890602 5262.87006 2 
6659.150215 5250.235318 7016.13086 5249.11592 0 
6631.144377 5261.858872 7015.992214 5248.900197 0 
6638.249244 5273.877163 7015.860754 5249.202033 2 
6615.846789 5287.84137 7016.232385 5248.980442 0 
6622.841112 5300.04825 7015.967754 5248.818977 0 
6602.758825 5315.045015 7016.056158 5248.777173 0 
6580.035203 5333.2023 7015.902201 5249.032226 2 
6326.917512 5404.042803 7016.152286 5248.817727 0 
6856.028121 5291.033145 7016.183647 5248.922498 2 
6857.142018 5295.925861 7016.072695 5249.141262 0 
6859.053024 5300.18345 7016.093295 5249.149813 0 
6861.77482 5305.07568 7015.880255 5248.865932 0 
6864.873931 5310.098009 7015.934909 5248.882755 0 
6866.893024 5314.241067 7015.909928 5249.178227 0 
6869.193366 5318.062129 7015.960452 5248.860879 0 
6871.854933 5322.862738 7015.928606 5249.133054 0 
6874.145883 5326.862252 7015.805552 5249.037901 0 
6876.038113 5332.128247 7015.929163 5248.841137 0 
6879.061697 5335.772458 7016.24095 5249.086517 0 
6881.098138 5340.871205 7016.202448 5249.222069 0 
6884.219214 5345.887357 7015.854824 5248.862238 0 
6885.878424 5350.014753 7015.790465 5248.82179 0 
6888.826882 5355.000917 7015.932669 5248.931814 0 
6891.113655 5359.111275 7015.814868 5249.009538 0 
6894.223527 5363.87042 7015.797439 5249.01164 2 
6286.248667 5979.976602 7016.102777 5249.060363 0 
6810.99906 5468.093727 7015.89688 5248.847199 2 
6815.214932 5477.849328 7015.819268 5249.184146 0 
6818.986686 5486.924092 7015.796384 5249.115109 0 
6864.188844 5445.836849 7016.1869 5248.765726 0 
6879.087766 5438.869569 7015.94754 5248.951421 0 
6891.230843 5432.012408 7016.210959 5249.20437 2 
6900.132828 5432.758398 7015.966011 5249.131495 0 
6910.985001 5426.818788 7015.941858 5249.234061 0 
6921.162515 5422.088738 7015.83126 5249.127447 2 
6925.188066 5426.900527 7016.061593 5248.924751 0 
6929.074619 5435.107978 7015.789861 5249.013463 0 
6932.194827 5442.226761 7016.029189 5249.032593 0 
6936.846329 5450.22673 7016.234013 5248.827173 0 
6940.989138 5456.194972 7015.781543 5248.871966 2 
6935.203371 5496.997554 7015.75346 5248.938371 0 
6941.066342 5504.945318 7015.922432 5248.978857 0 
6947.784056 5513.003692 7015.856304 5249.222121 0 
6955.154219 5521.167897 7015.896873 5248.978838 0 
6962.025875 5529.936734 7016.242302 5248.970702 0 
6965.913494 5566.021491 7015.753294 5249.009824 0 
6976.998221 5560.237308 7016.086997 5249.237359 0 
6987.18228 5554.11854 7015.859324 5249.135651 0 
6995.866094 5563.862785 7015.824022 5249.182435 0 
7008.058103 5487.996454 7015.911292 5249.092158 2 
7015.750146 5477.017596 7016.06428 5249.154365 0 
7022.935493 5467.211153 7015.883204 5249.211368 0 
7028.897886 5456.875505 7015.93207 5249.06138 0 
7035.146997 5449.935364 7015.821204 5248.895217 2 
7041.922672 5456.1582 7015.882576 5248.854952 0 
7049.02674 5460.991901 7016.240603 5249.142834 0 
7057.104685 5465.814624 7016.075269 5248.912788 0 
7065.061078 5472.236562 7015.754947 5249.061224 0 
7072.004158 5469.069226 7015.96559 5249.189651 0 
7079.030379 5468.098793 7016.151019 5249.178265 0 
7160.224299 5692.833089 7015.989646 5249.121295 1 
7181.018454 5709.060849 7015.766513 5249.191126 0 
7196.96905 5707.899089 7015.796078 5249.24579 0 
7242.140989 5729.78668 7016.138624 5248.995675 2 
7310.851305 5827.963894 7016.158463 5249.162383 2 
7332.950455 5827.16341 7015.973607 5249.204613 2 
7346.982636 5810.189197 7016.144264 5248.763015 0 
7368.03799 5805.045284 7016.19128 5249.012289 2 
7387.128373 5795.930926 7015.883584 5248.896827 2 
7361.241775 5724.900097 7015.837952 5248.960825 1 
7311.049186 5628.88403 7015.956616 5248.940175 0 
7312.92071 5607.84524 7016.18585 5249.022015 0 
7325.059134 5600.094313 7015.934398 5248.759589 2 
7765.007723 6047.158005 7016.214202 5249.240359 1 
7363.097202 5596.108467 7015.753374 5248.885192 0 
7369.90375 5583.194655 7016.147481 5248.782123 0 
7439.875581 5623.781065 7015.92895 5248.867356 0 
7413.931162 5579.016902 7016.078181 5249.230348 0 
7397.150932 5544.784797 7015.920524 5248.821642 0 
7402.880037 5529.856374 7016.093657 5249.189171 0 
7417.200687 5521.778055 7016.19876 5248.95841 0 
7599.18606 5620.162962 7015.94877 5249.033262 1 
7674.021429 5638.952144 7016.168455 5249.175179 0 
7697.896799 5624.065936 7016.207303 5249.02238 0 
7514.097001 5502.886252 7016.139736 5248.778163 1 
7526.153154 5489.967917 7015.758512 5249.054086 1 
7533.002714 5472.929035 7016.125729 5249.132751 0 
7521.035409 5448.969386 7016.071922 5248.986097 0 
7518.997441 5430.020682 7016.194507 5248.933502 0 
7538.933644 5419.893277 7016.216764 5249.205073 0 
7672.095421 5440.135219 7016.130253 5249.24222 0 
7505.951155 5375.087556 7016.0146 5248.798156 0 
7496.223808 5356.904336 7015.826319 5249.126962 0 
7487.122253 5338.834831 7015.931049 5248.874967 0 
7499.013866 5325.806778 7015.757719 5248.799276 0 
7522.026164 5314.079641 7016.035373 5248.773605 0 
7546.850323 5299.97988 7015.957107 5249.033967 0 
7575.123157 5284.923871 7015.989041 5248.968578 0 
7612.80909 5267.869294 7015.960799 5249.010245 0 
7438.206849 5249.225398 7016.0584 5249.180657 0 
7432.879734 5236.13472 7016.057619 5248.751987 0 
7425.219551 5224.238668 7015.876954 5248.983417 0 
7417.795445 5210.884673 7016.032693 5249.071609 0 
7424.214314 5197.818066 7016.095214 5248.814637 0 
7433.047946 5182.802321 7016.098604 5248.921103 2 
7425.976192 5170.837645 7016.139682 5249.035282 0 
7391.956938 5164.85048 7015.795526 5248.913787 0 
7322.825879 5171.103927 7015.844444 5248.955613 1 
7168.988646 5205.152063 7015.957599 5248.958197 2 
7142.140731 5208.084554 7016.191614 5249.186177 0 
7141.219227 5204.974307 7016.007786 5249.18354 0 
7139.042373 5200.853 7016.248177 5248.840319 0 
7136.905321 5197.096781 7016.011422 5249.131513 0 
7135.184425 5193.901104 7015.916795 5248.891363 0 
7133.001584 5189.962321 7016.055151 5249.077462 0 
7130.816248 5186.149595 7015.783075 5249.054895 0 
7129.051658 5181.990674 7015.763092 5248.94239 2 
7160.825228 5158.204706 7015.878567 5248.794455 0 
7157.929013 5152.136353 7016.227995 5249.221386 0 
7156.239353 5148.226172 7015.811705 5248.894674 2 
7315.072952 5018.073127 7015.776187 5249.007377 0 
7302.224231 5011.942982 7016.148741 5248.975815 0 
7297.155304 5001.953891 7015.803277 5249.221552 0 
7110.853486 5153.836352 7016.026447 5249.155144 0 
7099.077026 5160.039538 7015.847534 5249.152255 0 
7089.994244 5164.976101 7016.196709 5249.173256 0 
7081.862453 5169.174704 7016.144642 5248.851807 0 
7075.150876 5173.206347 7015.996481 5248.973828 0 
7069.029473 5176.022668 7016.231206 5249.003704 0 
7062.215651 5180.129946 7016.229519 5249.120954 0 
7057.833838 5181.782796 7016.092506 5248.937324 0 
7053.869148 5183.868953 7015.842468 5249.196174 0 
7050.158491 5185.940002 7016.098429 5248.902735 0 
7047.166102 5187.045138 7015.825991 5248.778556 0 
7042.969842 5190.220633 7015.880362 5248.870718 0 
7041.17698 5191.126843 7016.094546 5248.956453 0 
7037.899511 5192.075752 7016.210157 5248.865162 0 
7034.955698 5194.189676 7016.236116 5249.039536 0 
7033.222471 5195.078623 7016.226859 5248.841619 0 
7031.197576 5195.819327 7015.787793 5249.106067 0 
7029.009329 5197.136222 7015.758802 5248.925431 0 
7026.931359 5197.834793 7015.953987 5249.151201 0 
7024.805427 5199.08435 7015.771919 5249.232407 0 
7022.961193 5200.116465 7015.93886 5249.110705 0 
7021.942217 5200.899017 7016.225866 5249.147915 0 
7019.838693 5202.211983 7015.93745 5248.811164 0 
7018.040606 5202.914309 7015.902783 5248.988181 0 
7016.983637 5202.940576 7015.844249 5249.242966 0 
7015.826798 5203.853051 7015.918397 5249.008157 0 
7013.937844 5205.122385 7015.909359 5248.993271 0 
7012.956734 5205.931278 7015.975677 5249.167928 0 
7010.797743 5207.164537 7016.028632 5248.98996 0 
7009.813554 5207.004499 7015.887874 5248.902247 0 
7008.966481 5208.075324 7015.963411 5248.757087 0 
7008.239634 5208.116194 7015.995268 5248.973271 0 
7006.80677 5209.089517 7015.966236 5248.883568 0 
7005.192568 5210.134633 7016.141725 5248.880412 2 
7004.007018 5210.801084 7016.123682 5249.213752 2 
7002.982362 5210.849359 7016.13168 5249.030105 2 
7001.763896 5210.910312 7015.770064 5248.82745 2 
7000.164811 5209.907939 7015.979696 5248.881292 0 
6999.233263 5211.193107 7015.888379 5249.222897 0 
6998.059301 5211.133647 7015.946167 5249.116071 0 
6996.973164 5212.162404 7016.249639 5248.915732 0 
6995.047037 5213.141364 7016.046144 5248.804055 0 
6994.192448 5212.919826 7015.767808 5248.924809 0 
6993.019185 5214.149488 7016.204914 5249.033081 0 
6991.8098 5214.224978 7016.110531 5249.22461 0 
6990.882917 5214.840228 7015.855902 5248.86618 0 
6988.783335 5215.994281 7015.839077 5249.092636 0 
6987.877929 5216.035245 7015.958707 5249.101093 0 
6986.947648 5216.958345 7015.766825 5249.244685 0 
6985.849709 5217.062969 7015.79874 5248.792156 0 
6985.232795 5217.816548 7015.966966 5249.00198 0 
6984.216036 5218.92188 7015.785061 5248.775835 0 
6981.896858 5220.145592 7015.750445 5249.029775 0 
6981.23582 5219.856348 7016.145955 5248.769154 0 
6979.100629 5221.235033 7016.11179 5249.228558 0 
6978.020277 5221.820497 7016.079651 5249.217925 0 
6976.028842 5223.096477 7016.212611 5249.128551 0 
6974.909446 5222.761351 7016.170707 5248.89224 0 
6972.827899 5223.887673 7016.14422 5248.793935 0 
6972.059552 5225.179281 7015.81977 5249.206411 0 
6970.074874 5225.820215 7015.986186 5249.060693 0 
6968.926563 5226.882141 7016.079848 5248.777192 0 
6966.867174 5227.941638 7015.75575 5249.137451 0 
6965.012135 5229.085401 7016.105377 5248.790976 0 
6962.931878 5230.067987 7016.169527 5249.091323 0 
6960.079339 5231.090234 7016.233564 5249.157238 0 
6957.227907 5233.127784 7016.201173 5249.037459 0 
6955.057065 5233.770943 7015.99387 5248.881939 0 
6952.841158 5235.230056 7016.192632 5249.017721 0 
6949.862197 5237.02248 7016.044913 5248.979371 0 
6947.214118 5238.050663 7015.866822 5248.976253 0 
6943.886064 5240.222199 7016.017229 5249.067942 0 
6800.040186 5228.936756 7015.909265 5248.869525 0 
6794.77699 5234.892828 7015.776763 5248.754897 0 
6762.770612 5241.227936 7016.042356 5249.077678 0 
9516.248879 6422.786226 9594.209617 6421.840037 0 
9516.766282 6425.152249 9594.107759 6421.878479 2 
9516.924729 6426.902672 9594.10785 6421.888847 2 
9514.203335 6430.224672 9594.1151 6421.839399 0 
9515.196871 6431.882329 9594.157341 6421.987057 0 
9515.069085 6434.816606 9594.106582 6422.096075 0 
9515.959434 6438.133345 9594.100971 6421.980046 2 
9518.111282 6438.893327 9593.807724 6422.110161 2 
9421.929553 6466.767341 9594.200198 6421.945834 2 
9406.16959 6477.057956 9594.074313 6421.84432 0 
9408.210628 6482.932163 9593.983167 6422.163963 2 
9388.906836 6496.848267 9593.753363 6421.853707 0 
9400.980596 6499.160704 9594.090764 6421.799681 0 
9401.22731 6505.947347 9594.145755 6421.936744 0 
9401.830692 6512.996727 9594.16679 6422.191974 0 
9414.140054 6515.224514 9594.052134 6421.819607 2 
9413.241856 6522.002332 9594.015441 6422.161446 0 
9413.810288 6528.839755 9593.755766 6421.770917 0 
9405.021918 6541.988933 9594.18488 6422.178754 2 
9414.0872 6544.188243 9593.782461 6421.817796 2 
9418.098947 6550.123225 9593.867477 6422.076256 2 
9292.820572 6656.763232 9593.763 6421.901264 0 
9307.009959 6661.17979 9593.843238 6421.900013 0 
9310.154304 6673.145373 9593.969619 6422.14616 0 
9314.897705 6684.235061 9594.057606 6421.957993 0 
9446.824815 6570.063371 9593.97891 6422.096733 0 
9463.802304 6560.91379 9594.025487 6422.139504 2 
9465.852033 6567.057948 9594.2073 6422.200979 0 
9468.931173 6572.824776 9594.027235 6422.001745 0 
9472.838009 6579.040235 9594.153009 6422.097967 0 
9492.970025 6561.246248 9594.24798 6421.874329 0 
9503.14162 6555.9676 9593.770489 6421.789325 0 
9508.95266 6555.078095 9593.997318 6422.027475 2 
9523.891466 6541.226228 9593.874209 6421.94377 2 
9529.890018 6538.149695 9593.833274 6421.992051 0 
9536.957643 6533.790573 9593.94303 6422.138816 0 
9542.86535 6531.220265 9593.890561 6421.953358 0 
9548.010501 6527.79357 9593.801326 6422.230526 0 
9552.789818 6525.799306 9593.854855 6422.181438 0 
9558.016905 6520.875344 9594.220763 6422.219566 2 
9560.203439 6523.968081 9593.997041 6421.844905 2 
9565.944308 6519.12125 9594.038675 6422.084326 0 
9569.020945 6518.121949 9593.826377 6422.228588 0 
9573.162522 6516.019407 9594.117404 6421.777872 0 
9575.989672 6513.757965 9593.98123 6421.750173 0 
9578.801535 6512.032555 9594.230699 6421.841353 0 
9583.081861 6509.835554 9593.772791 6421.848767 0 
9584.960898 6509.243553 9593.818332 6421.914337 0 
9587.961634 6508.065373 9594.009243 6422.155942 0 
9590.936623 6505.797918 9593.990268 6422.207568 0 
9594.169867 6505.066645 9594.186156 6422.082389 0 
9595.836052 6504.05356 9594.110261 6422.075724 0 
9599.061525 6501.84149 9594.075897 6422.113061 0 
9601.124046 6501.056596 9594.204413 6421.955907 0 
9603.14215 6500.227204 9594.054673 6421.853048 0 
9605.220758 6498.123006 9594.017385 6421.932392 2 
9608.938379 6503.776628 9593.838334 6422.125002 0 
9612.824546 6512.078602 9594.08257 6422.244412 0 
9613.895247 6502.018727 9594.076802 6421.981299 2 
9616.822287 6500.937062 9593.807024 6422.133812 0 
9619.028553 6500.132921 9593.996873 6421.902598 0 
9620.939517 6498.951286 9594.108505 6421.831667 0 
9622.928491 6497.913179 9593.934715 6421.899248 0 
9625.786184 6497.202099 9594.08164 6421.974563 0 
9628.228727 6496.169974 9593.849566 6421.803272 0 
9628.998576 6491.182136 9593.797685 6422.143823 2 
9630.950862 6491.124486 9593.875122 6422.023149 2 
9632.811549 6489.932146 9593.906962 6422.090101 0 
9634.815067 6489.153834 9594.2427 6422.004585 0 
9637.85512 6487.101205 9594.086252 6422.033611 0 
9639.764384 6485.770966 9594.182859 6421.800568 0 
9642.223065 6485.014499 9594.025131 6422.201792 0 
9643.934472 6484.124697 9593.755065 6422.183048 0 
9646.056833 6482.80275 9594.076871 6421.757695 0 
9649.177236 6481.201993 9594.030845 6422.238785 2 
9665.88414 6494.187806 9594.078886 6421.949207 0 
9664.09164 6489.071586 9594.203792 6422.196761 2 
9656.922791 6478.040043 9593.980372 6421.937175 0 
9654.061009 6471.913231 9593.987743 6422.034075 0 
9652.17773 6466.762875 9593.985867 6421.862202 0 
9650.137572 6462.990932 9593.79525 6421.944405 0 
9648.043682 6459.122121 9593.9521 6421.970918 0 
9646.074115 6455.232945 9593.959703 6422.208254 0 
9644.170751 6451.78859 9593.907461 6422.012391 2 
9644.110176 6449.861253 9593.959152 6421.782967 2 
9647.151296 6449.189524 9593.970143 6421.962306 0 
9648.852755 6448.207886 9594.24638 6421.780485 0 
9651.220761 6446.982248 9593.892687 6422.108332 0 
9653.22318 6445.937937 9593.802737 6422.016862 0 
9654.810058 6445.004837 9594.23778 6422.134173 0 
9657.987781 6443.947483 9594.092427 6421.908532 0 
9659.986073 6442.249888 9594.170923 6421.846249 2 
9682.861141 6445.880075 9593.879216 6421.762438 2 
9716.819599 6450.099359 9593.974743 6421.922354 0 
9714.057245 6444.971124 9593.952838 6422.028006 0 
9712.203371 6441.095525 9593.886338 6422.176551 0 
9709.783462 6436.939075 9593.943412 6421.843521 0 
9708.193912 6432.931192 9594.227694 6421.931693 0 
9706.128675 6430.070121 9594.090225 6421.864748 0 
9704.070009 6426.011148 9593.960997 6422.181151 0 
9702.141223 6422.090214 9594.193589 6422.210822 0 
9699.939573 6418.918332 9593.883176 6422.246818 0 
9699.139456 6416.086015 9594.024824 6422.092827 0 
9698.93154 6413.161162 9594.019378 6421.965002 2 
9659.850237 6414.21279 9594.058523 6421.794149 0 
9657.893983 6412.036217 9593.975842 6421.772658 0 
9656.856338 6409.816067 9593.887407 6422.176347 0 
9656.077216 6409.098404 9594.107498 6421.968439 0 
9654.938618 6407.051086 9593.929261 6422.128191 0 
9654.219418 6405.062437 9594.125009 6422.108874 0 
9653.898452 6402.899833 9593.951701 6422.079992 2 
9662.810995 6398.221079 9593.794994 6421.911232 0 
9673.183869 6391.103517 9593.955381 6421.827852 0 
9788.889734 6338.181223 9593.85051 6421.996072 0 
9786.24729 6331.987916 9593.922419 6422.074506 0 
9782.83632 6325.779916 9593.792945 6422.024938 0 
9780.081002 6319.972206 9593.903129 6422.05042 0 
9811.784643 6292.778137 9593.909294 6421.933095 0 
9807.92797 6286.110995 9593.763087 6421.988965 0 
9934.082073 6190.808081 9594.150197 6422.015942 0 
9798.161599 6273.855577 9594.093794 6421.801333 2 
9763.7868 6291.194304 9594.047405 6421.784091 2 
9760.93222 6284.219824 9594.108597 6422.01854 0 
9659.24974 6364.151541 9593.793478 6422.080742 2 
9656.873747 6362.946607 9593.881163 6421.90839 2 
9655.974745 6361.040457 9594.091485 6422.152715 0 
9653.901451 6359.104572 9593.891679 6422.233524 0 
9650.162654 6357.791876 9593.999466 6422.074253 2 
9641.897453 6363.84326 9594.125586 6421.934254 2 
9634.787564 6367.922991 9593.968344 6421.969784 0 
9630.892814 6369.826941 9594.238324 6421.892554 0 
9628.228482 6370.781802 9594.223296 6421.852229 0 
9623.97841 6373.854459 9594.01062 6422.203154 0 
9621.144916 6374.852105 9594.105869 6421.796367 0 
9618.206678 6377.247548 9593.779891 6422.119331 0 
9614.789424 6379.029358 9593.943584 6421.936878 0 
9613.122618 6379.819169 9594.121131 6422.160181 0 
9610.99216 6380.839476 9593.879965 6422.134974 0 
9608.916417 6381.868289 9593.777528 6421.894899 0 
9607.900091 6381.750825 9593.997128 6422.128501 0 
9605.855284 6382.757748 9594.081655 6421.7502 0 
9603.859853 6384.937524 9593.796567 6421.81653 0 
9602.935073 6384.826458 9594.185862 6421.974497 0 
9602.105816 6385.879446 9594.161375 6421.978434 0 
9599.948615 6387.032506 9593.888615 6422.190775 0 
9599.121982 6387.01858 9594.075749 6421.788398 0 
9598.136869 6388.103278 9593.933297 6421.78696 2 
9597.104102 6388.180425 9594.165461 6422.209386 2 
9596.188173 6387.997117 9594.209586 6421.798026 2 
9595.184641 6385.756153 9593.864557 6421.869714 0 
9593.832611 6384.800418 9594.094211 6422.188428 0 
9591.929864 6381.005586 9593.916861 6422.128479 0 
9590.788092 6379.055477 9594.069254 6422.160073 0 
9588.824057 6374.895004 9594.198472 6422.210925 0 
9587.248281 6371.881769 9594.247886 6422.102384 0 
9584.812194 6368.163347 9594.06177 6421.750367 0 
9581.910464 6363.021356 9593.798393 6421.845105 2 
9556.027509 6251.91295 9593.964819 6422.110121 0 
9550.963369 6253.80903 9594.048548 6422.143233 0 
9546.064615 6257.21541 9594.021712 6422.102707 0 
9541.020886 6259.840966 9594.01278 6422.094943 2 
9442.98597 6001.961252 9594.055868 6421.984251 0 
9416.093021 5972.053754 9593.836635 6422.155215 2 
9408.967101 5996.148405 9594.155582 6422.127565 2 
9407.919761 6028.203976 9594.222669 6422.197271 0 
9518.866926 6276.937488 9594.057391 6422.080295 2 
9562.996518 6367.85594 9593.973527 6421.811133 2 
9565.82135 6377.245239 9594.16384 6422.092236 0 
9574.836205 6393.926621 9593.937179 6422.072175 2 
9575.137873 6395.243047 9593.806426 6421.980894 2 
9574.046801 6394.893061 9593.886109 6421.763902 2 
9572.791466 6395.791691 9594.141467 6421.961227 0 
9572.245667 6396.114136 9593.908497 6421.862593 0 
9570.801625 6397.215889 9594.192888 6422.048142 0 
9569.821829 6396.916415 9594.109275 6421.893178 0 
9568.911655 6398.023115 9594.235414 6421.99786 0 
9568.199736 6397.922593 9593.820035 6422.087609 0 
9566.91564 6398.876461 9593.818503 6422.212442 0 
9566.019522 6398.954612 9594.226344 6422.060988 0 
9564.996303 6400.117811 9593.772215 6421.99197 0 
9562.981948 6400.930712 9594.104564 6422.033572 0 
9560.896601 6402.047452 9593.831714 6421.96843 0 
9560.213867 6403.19099 9594.111608 6421.875522 0 
9558.964105 6403.097022 9594.123382 6421.913841 0 
9557.769616 6404.193417 9593.75145 6421.935256 0 
9555.819878 6404.819953 9593.897698 6422.089401 0 
9554.024564 6405.874042 9593.900389 6421.770867 0 
9553.241853 6405.922604 9594.012837 6421.9738 0 
9552.103316 6406.867401 9593.757372 6422.249917 0 
9550.164853 6407.839087 9593.968346 6422.12872 0 
9547.780076 6408.829954 9593.754242 6421.994181 0 
9546.176977 6410.127624 9594.158023 6422.196592 0 
9544.071041 6411.159473 9593.881848 6422.140919 2 
9516.229426 6407.029546 9593.98032 6422.00399 2 
9514.153587 6410.130708 9594.024857 6422.14544 0 
9513.803312 6411.787694 9593.86924 6422.156628 0 
9514.905095 6414.876613 9594.156544 6421.819948 0 
9514.965699 6416.874891 9594.198669 6421.995776 0 
9514.954845 6420.202911 9594.239957 6421.881822 0 
5011.080535 6180.14798 5267.828414 5847.901576 1 
5030.057453 6175.960262 5267.792495 5848.036878 1 
5028.239808 6201.022814 5267.790868 5848.143396 1 
5070.903523 6886.065725 5268.038836 5847.956835 1 
5100.103419 6912.158076 5267.863462 5847.758515 1 
5131.784689 6927.770007 5267.828463 5848.000388 1 
5157.894898 7016.777132 5268.246164 5848.099743 0 
5200.230043 6936.236121 5268.231565 5848.060578 1 
5234.134101 6939.809979 5268.212153 5847.941554 0 
5268.020242 6930.754648 5268.228432 5848.01005 0 
5302.027462 6911.7693 5267.903445 5848.180985 0 
5335.085025 6915.192281 5267.887819 5847.938444 0 
5366.100357 6878.001281 5267.946959 5848.135046 0 
5395.021288 6854.025423 5267.885434 5848.166186 0 
5425.052555 6837.881597 5268.015928 5848.032598 0 
5732.867718 8276.997493 5267.843175 5847.751819 1 
5488.057473 6830.805328 5267.943373 5847.827714 0 
5521.809976 6837.921805 5268.087764 5848.087438 2 
5746.941105 7320.24121 5268.018423 5847.77613 0 
5797.183491 7315.156242 5267.964575 5848.033848 0 
5637.907523 6783.161534 5267.918893 5848.178811 0 
5645.936956 6722.054327 5268.094997 5848.239511 0 
5672.185924 6707.860925 5268.022109 5847.803643 0 
5795.108419 6883.115284 5267.805462 5847.915891 0 
5655.170612 6552.998835 5267.993605 5848.230588 0 
5378.17064 6035.831369 5268.068026 5847.861746 0 
5383.822579 6032.836449 5267.887876 5847.75607 0 
5408.242691 6054.10245 5268.039917 5847.900214 0 
5413.013984 6049.208811 5267.829025 5848.200941 0 
5394.013138 6011.174022 5268.190452 5847.949062 0 
5398.784947 6006.96256 5268.002705 5848.143366 0 
5403.827844 6003.058167 5267.809257 5848.248456 0 
5407.807002 5999.052862 5268.229044 5848.227643 0 
5414.134232 5994.047071 5267.839388 5848.206811 0 
5418.13352 5989.977264 5268.21288 5848.126211 0 
5401.829714 5959.002798 5267.776425 5848.093698 0 
5402.961608 5952.85545 5268.044639 5848.224746 0 
5402.779472 5946.985091 5267.923808 5847.814419 0 
5404.197651 5941.176513 5268.207785 5847.775495 0 
5403.98468 5934.767042 5267.773952 5848.041682 0 
5405.069904 5928.752996 5268.019325 5847.954136 0 
5405.050067 5924.108713 5267.910947 5847.933587 0 
5412.835977 5922.873827 5267.809797 5847.915691 0 
5427.126625 5923.836222 5267.759389 5847.838234 0 
5610.941672 5997.054029 5267.81298 5847.971144 0 
5441.789119 5916.986788 5268.035563 5848.236771 0 
5435.9133 5908.993348 5267.762266 5848.14798 0 
5430.01039 5900.786217 5267.939662 5847.830295 0 
5423.789213 5894.208987 5268.034431 5848.08928 0 
5419.0677 5887.195378 5267.772866 5848.153677 2 
5421.819205 5882.832664 5267.819368 5848.19583 0 
5427.918885 5878.828757 5267.784064 5848.110557 0 
5433.132786 5874.847044 5267.831701 5848.171905 0 
5439.083831 5870.117264 5268.158675 5848.247132 0 
5444.860612 5865.170941 5268.145112 5848.121003 0 
5452.207158 5859.834774 5268.201297 5848.246372 0 
5507.793761 5855.985728 5268.085652 5848.111461 0 
5503.931106 5848.108518 5268.015137 5848.000311 2 
5516.191182 5841.084505 5267.946142 5847.860067 0 
5585.163262 5828.980206 5268.220624 5848.046047 2 
5678.077249 5809.802325 5267.967952 5847.91108 2 
5528.169589 5815.876627 5267.908212 5847.780201 0 
5495.797568 5811.803324 5268.151204 5847.754727 0 
5656.888097 5774.102501 5267.751099 5847.931858 0 
5650.838229 5763.08675 5267.793319 5848.019336 0 
5404.945268 5813.058456 5267.769647 5847.88645 0 
5403.89296 5808.965789 5267.996517 5847.806222 0 
5391.195994 5807.967141 5268.102269 5848.023243 2 
5353.019466 5817.820221 5268.184324 5847.939055 0 
5347.946848 5815.842536 5267.969257 5847.994417 0 
5341.895859 5812.87046 5267.999144 5848.033957 0 
5338.222962 5812.000242 5268.215815 5847.811191 0 
5334.836993 5810.759133 5268.080527 5848.032261 0 
5330.067589 5811.100174 5268.168711 5848.210549 2 
5326.815963 5809.915227 5267.766771 5847.761957 0 
5325.132368 5809.11904 5268.0352 5847.901835 0 
5320.189262 5806.969524 5268.09089 5847.88611 0 
5320.06206 5805.810147 5268.130527 5848.207919 0 
5317.930607 5803.879671 5267.991875 5847.903569 0 
5315.129913 5802.95769 5267.96476 5848.216906 0 
5313.966823 5801.795287 5267.999167 5847.784412 0 
5312.145461 5800.917877 5268.244962 5848.211423 0 
5310.083105 5800.761733 5268.22338 5847.965473 0 
5308.130773 5800.008581 5268.117308 5848.070035 2 
5309.228105 5795.958198 5268.206145 5848.040164 0 
5312.018344 5788.086672 5267.998083 5848.198951 0 
5316.216343 5778.239959 5267.85252 5848.096256 0 
5417.947649 5611.06728 5268.063162 5848.164472 0 
5410.112567 5607.812329 5268.198884 5848.008027 2 
5395.980206 5615.193846 5267.969451 5847.813311 0 
5384.205578 5620.942831 5268.028784 5848.086352 2 
5299.201411 5774.896091 5267.906386 5848.179516 0 
5296.104289 5775.862531 5267.96968 5847.872633 0 
5293.199203 5778.217764 5267.821584 5848.165546 0 
5290.207722 5778.924105 5268.011802 5847.905371 0 
5287.241385 5780.824964 5267.819842 5848.103952 0 
5283.887293 5781.768726 5267.861979 5848.117499 2 
5283.212572 5782.08143 5268.18081 5848.168151 2 
5280.77426 5777.959593 5268.004502 5848.225672 0 
5277.105684 5770.160889 5268.155188 5847.959973 0 
5274.77342 5765.874868 5268.082606 5848.222623 0 
5272.842632 5764.154191 5268.138169 5847.800354 2 
5269.828295 5763.899971 5267.955725 5847.81968 2 
5267.974936 5764.025567 5268.173631 5848.112229 2 
5265.044294 5758.78561 5267.979728 5848.006866 0 
5262.11704 5752.910538 5267.925016 5848.1413 0 
5258.120131 5745.179518 5268.116972 5847.975815 0 
5254.090407 5737.02216 5268.185788 5848.113827 2 
5222.147028 5560.018395 5268.08645 5848.23966 2 
5208.922585 5540.97462 5267.790013 5848.000881 2 
5200.124591 5543.995738 5268.070561 5847.849527 0 
5190.771305 5548.994192 5268.211756 5848.065599 0 
5182.029803 5552.941484 5267.822464 5847.896843 2 
5179.102021 5574.99748 5267.788143 5847.972152 2 
5184.926999 5619.155115 5268.197968 5847.767406 0 
5178.927275 5623.133756 5268.131233 5847.824303 0 
5171.902151 5625.967683 5267.813962 5848.074736 0 
5165.192303 5629.853976 5267.825617 5848.066894 2 
5039.099714 5433.146177 5268.166421 5848.121019 2 
5048.89037 5478.128176 5267.936617 5848.170172 0 
5036.81966 5484.009082 5267.817015 5848.171681 0 
5024.756562 5489.855158 5267.893834 5847.933561 0 
5012.760272 5496.841801 5267.950967 5847.937547 0 
5001.225557 5502.8322 5268.01185 5847.877708 0 
5744.049883 9097.075812 5798.202444 9095.992186 0 
5743.179787 9097.778061 5797.80908 9096.029501 0 
5741.174238 9100.225501 5797.90052 9095.814608 0 
5739.103677 9102.087137 5798.23478 9096.173337 0 
5736.846218 9103.801794 5798.095019 9095.85278 0 
5732.906952 9107.238852 5798.036341 9095.917224 0 
5730.830654 9109.237308 5798.104771 9095.806211 0 
5728.819508 9111.866621 5797.933919 9096.119391 2 
5366.192433 9207.886363 5797.861577 9096.12222 2 
5307.914424 9238.920657 5797.901721 9095.838662 2 
5227.896157 9282.05224 5797.903269 9096.249834 0 
5213.889377 9307.888049 5798.173172 9095.985596 0 
5225.939843 9324.01819 5798.088376 9096.096795 2 
5270.007042 9324.874717 5797.764019 9096.087696 2 
5235.862025 9362.118791 5798.143907 9095.931533 2 
5243.235412 9379.827826 5797.800924 9096.177844 0 
5252.964188 9396.9125 5798.050064 9096.128612 2 
5272.083157 9408.201785 5798.217274 9096.229314 0 
5286.004025 9421.870543 5798.229149 9096.143402 2 
5368.008592 9390.15232 5797.878998 9096.198435 1 
5378.92051 9401.217374 5798.04523 9096.177553 1 
5245.842091 9526.05925 5798.015249 9095.954116 0 
5283.92804 9521.909156 5798.135649 9095.913452 0 
5128.986981 9687.186573 5797.841297 9096.20117 0 
5128.849073 9726.141361 5798.079782 9096.18223 0 
5717.093146 9178.047055 5798.161544 9095.847171 0 
5722.167598 9178.140693 5798.240574 9095.92619 0 
5726.043013 9177.869572 5797.874625 9096.213523 0 
5729.836946 9179.169855 5798.141076 9095.929037 0 
5733.979105 9178.906325 5798.133153 9096.157145 0 
5738.065481 9179.018802 5797.820597 9095.802462 0 
5741.955375 9178.911893 5797.753632 9096.054448 0 
5745.803254 9179.083414 5797.986678 9096.1464 0 
5748.880469 9178.898222 5798.243572 9095.798067 0 
5751.788915 9180.234145 5797.974257 9096.081927 0 
5754.853717 9180.098882 5798.045451 9095.940663 0 
5759.018737 9179.936527 5798.119699 9096.247841 0 
5762.092851 9180.002852 5798.154986 9095.908332 0 
5764.771655 9180.225583 5797.960794 9095.97703 0 
5767.887476 9179.964426 5797.781478 9095.940731 0 
5770.79784 9180.018156 5797.837131 9095.928309 0 
5773.166378 9180.830703 5797.976376 9096.205292 0 
5775.814848 9181.200633 5798.03722 9095.918565 0 
5779.049515 9180.832671 5798.109227 9095.818251 0 
5782.019197 9180.978927 5797.816093 9095.862049 0 
5784.231779 9181.221079 5798.020381 9095.753434 0 
5792.196662 9142.231175 5797.980464 9095.834138 1 
5792.945601 9141.011941 5798.024869 9095.993441 1 
5793.780097 9148.112 5798.17175 9096.196475 1 
5796.192703 9159.898126 5798.151767 9095.757551 1 
5797.848759 9140.938987 5797.926116 9096.148273 1 
5799.021658 9146.785344 5798.216525 9095.790855 1 
5800.01427 9133.782617 5797.902903 9095.996049 1 
5802.753696 9155.173284 5797.999483 9096.200358 1 
5803.154459 9142.229947 5797.784496 9095.85006 1 
5804.991888 9142.059365 5798.093501 9096.021985 1 
5805.921366 9144.01525 5797.96846 9095.864069 1 
5807.163376 9139.870228 5797.87162 9095.762135 1 
5808.059215 9139.047736 5798.160408 9095.830873 1 
5808.08308 9133.126933 5797.871728 9095.84735 1 
5814.15955 9149.024631 5798.093399 9096.163246 1 
5815.947915 9145.842882 5798.113604 9095.852374 1 
5814.822829 9140.148101 5797.952434 9096.064717 1 
5814.957466 9137.795935 5797.836703 9096.128832 1 
5826.061185 9158.055163 5798.242901 9095.974561 1 
5819.17539 9138.864521 5797.986696 9095.984605 1 
5826.162257 9146.897103 5798.065478 9095.995336 1 
5826.774036 9146.187206 5798.092686 9096.183586 1 
5830.961837 9149.936086 5798.096832 9096.159752 1 
5848.028968 9169.960436 5797.762127 9096.101797 0 
5846.858537 9163.964561 5797.916514 9096.066003 0 
5848.010495 9162.003217 5797.944835 9095.821681 2 
5850.80838 9161.937736 5798.046242 9096.23377 0 
5854.052256 9160.782937 5797.968375 9095.964513 0 
5856.930041 9159.783854 5798.209849 9095.954077 0 
5861.221059 9159.052536 5797.887663 9095.932896 0 
5864.238621 9159.234495 5797.842649 9096.017589 0 
5866.944931 9157.854775 5797.869386 9096.053468 0 
5870.069336 9157.035901 5797.869471 9095.829831 0 
5873.789117 9156.064306 5797.901512 9095.847497 0 
5877.752041 9155.197753 5797.831267 9096.054298 1 
5882.230691 9154.049643 5797.768811 9095.910731 0 
5885.083496 9152.22866 5798.114808 9096.054556 1 
5885.031196 9148.752471 5798.237452 9096.019817 1 
5871.236966 9136.830101 5797.787406 9095.931897 1 
5891.934876 9143.906793 5798.235365 9095.754212 1 
5878.192693 9134.854836 5797.834043 9096.231811 1 
5895.169142 9137.985554 5797.829308 9096.171183 1 
5877.933308 9128.910575 5797.975481 9095.913999 1 
7062.210218 9550.994291 5798.07473 9096.043714 0 
5889.972951 9125.939538 5797.84827 9095.754147 1 
5900.942009 9125.835722 5798.023964 9095.928974 1 
7261.915822 9472.061371 5798.110871 9096.100698 0 
7338.218164 9441.096236 5798.10491 9096.160857 2 
7452.201072 9412.188952 5798.142668 9096.120214 0 
7205.924507 9320.221976 5798.041397 9096.107815 1 
5820.882551 9098.766877 5797.771813 9095.842768 0 
5820.011169 9098.096543 5798.136482 9096.23412 2 
5818.786081 9097.234752 5798.238268 9095.97809 0 
5818.820474 9096.012232 5798.157065 9095.986296 0 
5818.823603 9095.017936 5797.836994 9095.791766 0 
5818.864172 9094.191904 5798.202623 9095.815244 0 
5819.130856 9093.095291 5798.185458 9095.805363 0 
5819.067266 9091.976854 5798.163178 9096.199817 0 
5818.993732 9091.184991 5797.792586 9095.754901 0 
5819.031535 9090.179068 5798.239021 9096.067616 0 
5819.16382 9089.227288 5797.795707 9096.234294 0 
5818.98952 9088.202771 5797.97059 9096.063123 0 
5818.970707 9087.057584 5798.104889 9096.08488 0 
5818.999488 9086.057513 5798.150124 9095.880344 0 
5818.902804 9085.085581 5797.935707 9096.22007 0 
5818.812436 9083.848885 5798.169887 9096.056168 0 
5818.783877 9083.212473 5798.061068 9096.065411 0 
5820.141541 9082.050089 5797.883027 9096.055361 0 
5820.027378 9080.928734 5798.039655 9095.766898 0 
5820.881505 9078.760245 5798.080022 9096.102213 2 
5858.067829 9045.934911 5797.937092 9095.817317 0 
5854.242424 9045.837216 5797.947661 9095.895227 0 
5852.172797 9046.133368 5797.865297 9096.235233 0 
5849.232253 9044.785184 5798.041401 9095.76613 0 
5845.247657 9044.85247 5798.081541 9096.139198 0 
5843.152559 9044.214568 5797.944559 9095.929937 0 
5840.893302 9044.234214 5797.946835 9096.024807 0 
5838.244459 9043.776857 5797.87702 9096.062287 0 
5835.961768 9044.064112 5798.129604 9095.954192 0 
5834.151329 9042.827265 5798.099419 9096.074126 0 
5831.210633 9043.214716 5798.059359 9096.192887 0 
5829.249901 9042.85076 5798.209016 9096.247558 0 
5826.95323 9042.040557 5798.136756 9095.855789 0 
5825.005126 9041.831315 5798.035726 9096.148428 0 
5822.815528 9041.232561 5797.923235 9095.809987 2 
5821.759418 9040.050255 5798.122275 9095.971186 0 
5822.864368 9033.001879 5798.175378 9095.765696 0 
5825.079144 9019.024797 5798.089822 9096.039777 0 
5822.989513 9018.899182 5797.982664 9095.989414 0 
5819.999942 9018.94168 5797.986972 9096.203172 0 
5817.232238 9018.873727 5797.80896 9095.987363 0 
5814.955042 9019.094686 5797.885791 9096.02057 0 
5812.077247 9019.059027 5798.080557 9096.086665 0 
5809.859282 9018.952832 5797.807851 9095.97365 0 
5807.204711 9019.233229 5797.989346 9096.033855 0 
5805.008026 9018.829168 5797.823632 9096.247539 0 
5801.97835 9019.056296 5797.986953 9096.228292 0 
5800.247976 9018.223925 5798.181463 9096.230213 0 
5797.847652 9018.240424 5797.967577 9096.052694 0 
5756.085109 7751.103368 5797.823264 9095.912357 0 
5747.912395 8299.153822 5798.249022 9096.021677 1 
5758.856654 8688.806873 5798.245326 9095.811365 0 
5747.790102 8704.984672 5798.095219 9096.048128 0 
5738.063841 8720.168851 5798.045667 9095.792191 0 
5725.975147 8717.78262 5797.770483 9095.973122 0 
5703.756545 8676.201946 5797.953336 9095.854197 0 
5658.192369 8549.170913 5798.156891 9096.027479 0 
5641.024281 8557.230155 5798.189835 9096.186675 2 
5278.133977 7491.188857 5797.958352 9096.240631 0 
5703.24573 8833.953678 5797.801996 9095.785832 2 
5752.188351 8980.147215 5798.08396 9096.002192 2 
5749.066066 8984.879627 5798.044382 9095.791213 0 
5746.912247 8988.064865 5798.014335 9095.918791 0 
5744.016811 8992.217671 5798.022988 9095.95918 0 
5764.138584 9035.929879 5798.236659 9095.912864 2 
5762.910034 9038.176495 5797.84954 9095.794011 2 
5761.115352 9040.057892 5797.784642 9096.111082 0 
5776.76157 9066.836638 5798.146913 9096.199921 2 
5777.233853 9068.980873 5797.952112 9096.049919 2 
5777.1105 9069.246495 5798.091131 9095.772746 2 
5775.06136 9069.855466 5797.941538 9095.828171 0 
5773.823137 9071.214526 5798.037351 9096.211721 0 
5772.894405 9071.02401 5797.874585 9096.054439 0 
5771.950505 9071.974125 5798.098451 9095.815857 0 
5770.782017 9073.133093 5798.176938 9095.793587 0 
5770.219731 9074.073852 5798.243508 9096.203584 0 
5768.804725 9074.94562 5798.003503 9096.165224 0 
5767.942115 9075.844634 5798.187971 9095.753474 0 
5766.9501 9076.879509 5797.831645 9096.023237 0 
5765.844035 9078.118996 5797.984958 9095.98844 0 
5764.893006 9079.109544 5797.792879 9096.09351 0 
5763.833669 9079.14133 5798.159367 9095.865686 0 
5763.024423 9080.086305 5797.909273 9095.994155 0 
5761.910157 9080.902781 5797.947739 9095.964882 0 
5761.098401 9082.201241 5797.880106 9095.790516 0 
5759.795875 9082.818077 5797.79399 9095.995976 0 
5758.947586 9083.875635 5797.769213 9096.04162 0 
5757.24463 9086.004172 5797.78006 9095.887636 0 
5755.863715 9086.822939 5798.231146 9095.947384 0 
5755.21427 9088.140513 5798.063071 9095.988693 0 
5752.976819 9089.222344 5798.232848 9096.136975 0 
5750.875125 9090.930586 5797.851857 9096.223526 0 
5749.881828 9091.981963 5797.764042 9095.927703 0 
5749.05004 9092.808031 5798.173679 9096.247626 0 
5746.933666 9095.192892 5798.039246 9095.928296 0 
7531.947064 9980.069306 7656.065932 9979.060779 2 
7523.142245 9984.047078 7655.758163 9979.106515 0 
7510.937591 9989.071234 7655.845208 9979.16441 0 
7510.043577 9992.828056 7656.051385 9979.168702 0 
7893.008642 9994.153243 7656.142228 9979.14047 0 
7908.885206 9987.15627 7655.818173 9979.185246 2 
8111.214301 9979.241852 7656.182871 9978.897967 0 
8123.184744 9964.972117 7656.076263 9978.881808 0 
8114.791423 9950.892195 7656.192586 9979.183669 0 
8108.189273 9937.20075 7656.040184 9978.876865 0 
8100.021983 9923.135392 7655.791275 9978.815561 0 
8093.213448 9910.09266 7656.234263 9978.97209 0 
8085.995903 9897.126491 7655.86256 9979.131108 0 
8112.032761 9877.930733 7656.066354 9978.997063 0 
8176.922586 9845.999226 7656.14503 9978.85733 0 
8465.221343 9744.971293 7655.989137 9978.762766 0 
8214.113489 9797.931724 7656.196435 9979.052762 2 
8207.882474 9780.986619 7656.179627 9979.154457 0 
8200.872011 9763.220901 7656.220018 9978.835459 0 
8398.063561 9658.204281 7656.057549 9978.809464 1 
8399.080772 9630.170109 7656.190572 9978.863533 1 
8534.850843 9531.006926 7656.110596 9979.023428 2 
7773.756152 9914.005626 7656.130758 9979.227495 0 
7755.22692 9919.869895 7656.240262 9979.090408 0 
7742.051619 9924.186697 7655.89317 9979.184093 2 
7741.923316 9920.822797 7656.08855 9979.045327 0 
7740.793698 9918.058567 7656.130786 9979.107259 0 
7739.012848 9914.938334 7656.166723 9978.84362 0 
7737.858444 9912.107295 7655.957153 9978.959286 0 
7736.864222 9907.817749 7656.232714 9978.870374 0 
7736.073375 9904.113472 7655.847869 9979.050295 0 
7735.233368 9900.83813 7655.890703 9979.034987 0 
7732.774827 9897.033873 7655.96908 9978.948143 0 
7735.10667 9888.80763 7656.243469 9979.150368 0 
7734.116197 9885.124255 7656.007627 9978.879045 0 
7731.812589 9879.92435 7655.972665 9978.921033 0 
7732.781645 9872.179818 7656.130319 9978.895867 0 
7728.247568 9873.113033 7656.016241 9979.070943 2 
7725.976506 9869.114109 7655.871238 9978.959873 0 
7724.20224 9865.011941 7656.24486 9979.227067 0 
7730.795815 9840.96394 7655.92521 9979.152485 0 
7725.02157 9842.918679 7656.052853 9978.887768 0 
7719.792934 9843.810481 7656.016813 9978.855523 0 
7717.984831 9836.239478 7656.026556 9979.016476 0 
7715.169296 9828.906875 7656.162343 9979.166864 0 
7715.769909 9810.928584 7655.987807 9978.996414 0 
7709.792693 9813.109045 7656.206288 9979.244933 0 
7704.870986 9811.201148 7656.222 9978.916801 0 
7700.915088 9800.897209 7655.819286 9979.186659 0 
7698.065888 9792.12214 7655.824426 9979.108822 0 
7699.18262 9754.091239 7656.214345 9978.917451 0 
7691.080717 9756.990902 7656.183928 9979.000013 2 
7686.147777 9743.096271 7655.916876 9979.167686 0 
7658.774855 9941.154683 7655.9141 9978.817548 2 
7658.013728 9940.870388 7655.812481 9979.134714 2 
7656.821536 9941.784481 7655.801515 9978.986624 0 
7655.931691 9941.870801 7655.923283 9979.247579 0 
7654.242941 9942.997709 7656.106401 9979.175561 0 
7652.838948 9943.070747 7655.843012 9979.169665 0 
7651.811648 9942.77694 7655.919677 9979.209426 0 
7651.123211 9944.086554 7656.127111 9979.148065 0 
7649.991237 9943.791211 7656.215614 9978.754964 0 
7648.911599 9944.778095 7656.139678 9978.983135 0 
7647.812576 9945.191193 7656.219759 9978.994267 0 
7646.811994 9944.893041 7655.991846 9978.804935 0 
7646.14075 9945.848248 7656.230495 9979.229698 0 
7645.168994 9945.823508 7656.149363 9979.230643 0 
7643.850447 9945.81904 7656.190068 9979.223658 0 
7643.155594 9947.06718 7656.121723 9978.89683 0 
7642.108391 9947.087337 7655.901795 9978.76999 0 
7640.115432 9947.791473 7656.003125 9979.178008 0 
7639.232666 9947.972884 7655.922275 9978.794659 0 
7637.115925 9949.164122 7655.849594 9979.006675 0 
7634.762369 9948.830089 7655.986373 9979.181363 0 
7633.903597 9949.885736 7656.162006 9979.004044 0 
7632.954776 9950.102074 7655.977702 9978.86037 0 
7631.919254 9950.849426 7656.0072 9978.777645 0 
7631.186763 9951.158995 7655.797635 9979.052195 0 
7629.200468 9952.05076 7655.980203 9979.183133 0 
7626.773644 9952.152478 7656.227793 9979.139569 0 
7626.0666 9952.827387 7655.896245 9979.078969 0 
7623.907476 9953.132618 7656.010332 9979.061073 0 
7622.768354 9953.922339 7655.815117 9978.97313 0 
7620.774413 9954.042819 7656.0835 9978.943667 0 
7620.142245 9954.8407 7655.971312 9979.079008 0 
7618.249695 9956.018947 7655.881202 9979.200162 0 
7616.819708 9956.111405 7656.133295 9978.843352 0 
7615.013884 9957.111088 7656.232921 9978.830484 0 
7612.188475 9957.879165 7656.159453 9978.845951 0 
7610.761783 9957.919785 7656.157024 9978.780137 0 
7609.092124 9959.222141 7656.003267 9979.116537 0 
7597.01496 9955.836767 7655.810204 9978.907205 0 
7597.927467 9959.031516 7656.236213 9978.927162 0 
7598.800463 9960.867415 7655.877324 9978.870171 2 
7597.228821 9962.76062 7655.963522 9978.992705 0 
7594.121708 9963.946443 7656.073188 9979.060182 0 
7591.075608 9964.982641 7656.156133 9979.087391 0 
7588.152426 9966.063156 7656.117529 9978.99455 0 
7583.035297 9967.870796 7655.861087 9978.800257 0 
7524.957563 9962.92129 7655.957462 9979.13503 0 
7527.202806 9966.943675 7655.812192 9978.753269 0 
7528.06109 9970.939516 7655.87344 9979.039911 0 
7528.950136 9975.086962 7655.782616 9978.821843 0 
7778.783405 9905.105804 7982.132026 9904.109013 0 
7780.838445 9911.038159 7981.946404 9904.240872 2 
7758.851315 9918.813933 7981.985422 9904.136612 0 
7656.934729 9936.096508 7982.186869 9904.142292 0 
7497.767799 9996.894332 7982.027322 9904.220605 0 
7900.088007 9992.089513 7982.223874 9903.899097 0 
7908.77903 9986.847314 7982.189009 9903.979165 2 
7913.184276 9988.221624 7982.051009 9904.21768 2 
7916.077429 9989.933035 7982.076694 9904.165874 0 
7921.221193 9987.773098 7982.156746 9903.822508 0 
7926.837031 9985.892168 7982.209121 9904.02176 0 
7931.238676 9984.14599 7981.914051 9903.756475 0 
7934.790322 9983.191373 7982.22708 9904.128329 0 
7940.030886 9980.200953 7981.777426 9904.059916 2 
7939.798267 9985.216435 7981.789081 9904.232542 0 
7942.188059 9989.09009 7982.200223 9904.015488 0 
7942.773125 9993.026917 7981.931362 9904.244318 0 
7945.050015 9996.838108 7981.816826 9904.137045 0 
8075.980275 9997.775947 7981.908805 9903.968951 0 
8079.171937 9996.072856 7981.975426 9904.212258 0 
8083.014229 9993.952506 7982.090587 9903.795116 0 
8086.903459 9992.118013 7982.105032 9903.951726 0 
8091.084448 9990.144113 7981.934269 9904.022507 0 
8095.984203 9986.884491 7981.787994 9904.007327 0 
8100.161408 9984.969356 7982.001645 9903.961423 0 
8104.057464 9983.068472 7981.848468 9903.787739 0 
8109.094418 9980.007273 7982.00669 9904.016355 0 
8113.83013 9978.232116 7981.978613 9904.094359 0 
8118.934622 9974.8192 7982.139475 9904.088081 0 
8124.187213 9971.994506 7981.789807 9904.021661 0 
8119.888619 9958.974076 7981.794168 9904.122822 0 
8116.108567 9952.832162 7981.880149 9904.019975 0 
8113.051518 9947.131795 7982.231398 9903.858982 0 
8109.950266 9941.829866 7981.896721 9903.794685 0 
8105.087139 9932.153411 7982.06104 9904.167269 0 
8102.135527 9926.789653 7982.011628 9903.82015 0 
8097.858854 9918.901103 7982.158231 9903.796067 0 
8096.145609 9915.198038 7982.067728 9903.784228 0 
8093.922114 9912.111896 7982.15705 9903.780681 0 
8092.194058 9907.7872 7982.050657 9903.995576 0 
8090.168994 9904.032054 7982.104558 9903.869261 0 
8088.11192 9900.751279 7981.913945 9903.94906 0 
8087.15469 9898.224985 7981.866328 9904.040217 0 
8084.764638 9895.127956 7982.110366 9903.873492 0 
8083.779059 9892.018597 7981.919559 9904.174668 2 
8096.966635 9886.237287 7982.208896 9904.138749 0 
8107.099183 9881.115946 7982.16943 9904.043241 0 
8117.153145 9873.970087 7981.788817 9904.07214 2 
8179.752141 9854.143375 7982.1914 9904.114062 0 
8178.144654 9847.855346 7981.813121 9904.049343 0 
8174.830331 9840.92945 7981.83956 9903.844969 0 
8732.807406 9634.199926 7981.968462 9903.836465 0 
8324.968524 9769.138021 7981.761133 9904.185159 2 
8278.125308 9776.220029 7982.073908 9903.974491 0 
8213.085974 9795.993339 7981.767732 9903.98912 0 
8210.213425 9787.80655 7981.81126 9904.215567 0 
8208.199925 9779.75266 7982.079629 9904.094578 0 
8204.858006 9773.14275 7981.893921 9903.938337 0 
8201.8222 9764.983481 7982.033307 9903.879606 0 
8204.933408 9752.751768 7981.966071 9904.151932 0 
8473.139789 9546.977204 7982.087091 9904.015097 2 
8419.947232 9564.910999 7982.239588 9903.783207 2 
8413.154337 9547.757321 7982.022327 9904.117763 0 
8406.81387 9530.083586 7982.08333 9903.763795 0 
8420.086246 9493.912958 7982.108373 9904.194253 0 
8353.805708 9532.752295 7981.88259 9903.877908 0 
8347.985776 9515.165896 7982.007514 9904.169184 0 
8233.167664 9619.223585 7982.071116 9904.057453 0 
8217.950789 9618.908206 7981.82255 9904.148021 0 
8205.069205 9616.812138 7982.181228 9903.973542 2 
8199.819459 9604.953554 7981.841305 9903.883329 0 
8152.78714 9652.174635 7981.897124 9904.123387 2 
8138.837593 9655.755497 7982.067639 9903.893301 0 
8124.757792 9661.200229 7982.021209 9903.993568 0 
8113.116126 9664.778723 7981.912752 9904.03379 0 
8100.752309 9669.233867 7981.841243 9903.953097 0 
8089.892073 9672.913793 7981.851118 9904.211278 0 
8079.975932 9675.782346 7981.934821 9904.045391 2 
8075.9859 9667.026126 7982.17872 9904.02304 0 
8071.95076 9654.825844 7981.896427 9904.038353 0 
8057.831341 9668.214067 7982.181654 9903.839133 0 
8049.164296 9670.952864 7982.082701 9904.030421 0 
8040.981587 9674.245453 7981.814211 9903.983896 0 
8032.22932 9676.905455 7982.186993 9903.871394 0 
8025.069248 9678.788112 7981.832672 9903.79518 0 
8016.820457 9682.017493 7982.090571 9904.056357 0 
8008.793618 9684.019291 7981.829398 9903.994379 0 
8002.095135 9686.975825 7981.782732 9904.176476 0 
7994.939892 9689.214386 7981.76561 9903.854187 0 
7987.91725 9692.098311 7982.134609 9904.148837 0 
7982.093764 9694.19882 7981.882733 9904.073084 0 
7974.854275 9695.819726 7982.194478 9904.173523 0 
7968.857838 9697.77715 7982.218703 9903.928295 2 
7962.044642 9693.059274 7982.234653 9904.08826 2 
7944.828564 9612.81405 7981.832639 9904.173699 2 
7927.039875 9558.865371 7982.100176 9904.229767 2 
7940.829757 9690.115785 7981.833955 9903.997007 2 
7934.964096 9695.218563 7981.895844 9903.80786 2 
7789.167384 9152.028577 7982.130944 9903.771658 1 
7786.098303 9231.075422 7982.195181 9904.206141 0 
7766.102571 9239.163884 7981.884436 9903.897214 0 
7787.973158 9364.869088 7982.235474 9904.051722 2 
7782.933139 9401.818113 7981.975421 9904.223014 0 
7778.933484 9434.825597 7982.202781 9904.013241 2 
7781.191382 9475.786736 7981.760248 9903.905478 0 
7834.7553 9616.906092 7981.963338 9904.172683 2 
7842.184669 9650.844282 7982.194342 9904.032972 0 
7865.169704 9708.139523 7981.989112 9904.022275 0 
7877.053407 9740.123548 7982.169489 9903.776565 2 
7886.242637 9764.154963 7982.078287 9903.925775 2 
7882.223076 9767.803709 7981.89879 9903.90656 0 
7876.879306 9768.851571 7982.169801 9903.820688 0 
7871.888307 9771.180049 7981.976166 9903.893607 0 
7905.83614 9819.189504 7981.81629 9903.770809 2 
7906.783786 9825.760632 7982.053781 9904.20349 0 
7909.150155 9831.792893 7981.975766 9903.953562 0 
