ply
format ascii 1.0
element vertex 945
property double x
property double y
property double x_origin
property double y_origin
property int lab
end_header
7112.848074 773.8294598 7266.12223 1098.083011 0 
7102.882888 780.2173581 7266.119139 1097.881907 0 
6998.810014 612.9065673 7266.074291 1097.864453 0 
7091.969835 803.8424303 7266.182766 1098.104755 0 
7081.812245 809.1678787 7266.048676 1098.064535 0 
7073.041764 814.0981071 7265.901906 1097.903409 0 
7062.96864 818.7720017 7266.07352 1097.767718 0 
7052.877344 824.0677878 7266.046879 1097.975418 0 
7043.147248 829.9191099 7265.808429 1097.780136 2 
6753.886468 517.1775678 7265.912043 1097.946482 0 
6731.834135 529.2363335 7266.060935 1098.05397 0 
6709.828764 540.9937009 7265.908725 1097.891009 0 
6686.91158 553.2074004 7266.205544 1098.203343 0 
6664.055507 565.8574498 7265.856752 1097.774148 0 
6625.879451 569.1802719 7265.791865 1098.006795 0 
6829.99806 760.0887447 7266.232213 1097.895307 2 
6868.757855 809.7906422 7265.925443 1097.894323 0 
6882.21821 837.0874857 7266.090805 1097.802345 0 
6899.073819 865.9017398 7266.106315 1098.152583 0 
6908.145441 886.7650403 7265.793592 1097.80702 0 
6933.222441 928.2491353 7265.760364 1098.027948 2 
6990.856585 968.867116 7266.052096 1097.986036 2 
6981.797388 976.093961 7266.242832 1098.045447 0 
6988.932706 989.2250447 7266.190755 1097.94056 0 
6994.765687 1000.866198 7266.084883 1098.233897 0 
7002.203684 1012.925688 7265.786242 1098.027503 0 
7007.077428 1023.142558 7265.930086 1097.972869 0 
7012.157598 1032.973678 7266.029889 1098.130039 0 
7017.972813 1043.040253 7265.907987 1098.079398 0 
7023.157369 1052.210083 7265.815435 1098.204757 0 
7151.054044 1079.808266 7266.000204 1098.236749 1 
7031.783311 1068.940959 7265.92731 1097.798998 0 
7037.057157 1076.762193 7265.782895 1098.01084 2 
7024.937881 1082.819137 7265.788343 1097.765309 0 
7157.211695 1094.968429 7265.988178 1098.119293 1 
7739.192107 3535.768067 7813.999332 3534.91492 0 
7741.05832 3538.157319 7814.244318 3534.965688 0 
7742.117401 3539.809753 7813.920445 3534.921445 0 
7742.868019 3542.170649 7813.908195 3534.90133 0 
7746.861608 3546.085504 7813.950328 3535.168765 2 
7747.097698 3547.983223 7813.929605 3534.785579 2 
7747.052361 3549.967948 7813.800888 3535.014056 2 
7747.186378 3553.039066 7813.883349 3535.128485 0 
7748.057133 3555.132681 7813.793405 3534.865452 0 
7750.04 3555.787724 7814.081141 3534.907401 2 
7749.847477 3557.751585 7814.078846 3534.965496 2 
7736.172235 3566.237041 7814.116826 3534.783842 2 
7020.072545 3879.817154 7814.202607 3534.920243 2 
7288.050378 3782.882212 7813.955821 3534.852738 1 
7487.10016 3702.006709 7814.116794 3535.036538 2 
7387.795775 3769.750143 7813.915023 3535.102908 1 
7547.132824 3692.958429 7814.21836 3534.922823 2 
7761.996152 3569.0495 7814.080224 3535.093629 2 
7763.051086 3569.90907 7813.809125 3534.97332 2 
7762.896111 3572.175952 7814.007163 3535.218656 2 
7764.243106 3573.95977 7813.888898 3535.043484 0 
7765.091982 3575.09472 7814.146222 3534.942142 0 
7766.851429 3579.013016 7814.22868 3534.897204 0 
7768.013159 3580.893704 7813.750111 3534.895982 0 
7769.102132 3582.218471 7814.068805 3534.848285 0 
7770.017972 3583.899029 7814.191914 3534.819057 0 
7771.0581 3585.751039 7814.042378 3535.20421 0 
7772.176991 3587.799541 7814.172866 3535.170096 0 
7774.00931 3589.811764 7813.96358 3534.851292 0 
7776.156484 3590.859802 7814.043434 3534.757913 2 
7778.122818 3592.022115 7813.905116 3534.885976 0 
7782.165818 3589.905228 7814.031959 3535.01795 0 
7785.873699 3586.850764 7814.116235 3535.141671 2 
7785.999793 3589.058149 7814.210728 3534.807893 2 
7787.059188 3591.003106 7813.762103 3534.986178 0 
7788.052646 3593.184969 7813.906275 3534.811957 0 
7790.246733 3596.119855 7813.913249 3535.153217 0 
7791.229657 3597.206683 7814.16113 3535.102475 0 
7791.978797 3599.816246 7814.238451 3534.894615 0 
7793.971474 3602.02041 7814.162566 3535.095173 2 
7789.121173 3633.028801 7813.986844 3534.870967 0 
7790.836949 3634.947572 7813.928859 3535.146137 2 
7795.200678 3635.940962 7813.882315 3535.003324 0 
7797.875931 3634.038589 7814.065281 3534.872664 0 
7800.908444 3632.228529 7813.775881 3534.888101 2 
7804.185212 3637.187011 7814.240575 3534.914009 0 
7806.753257 3643.229026 7814.058624 3534.974731 0 
7809.999436 3648.97119 7813.819903 3534.870609 0 
7814.249991 3653.056747 7813.991576 3534.83694 2 
7819.754319 3746.170435 7814.233076 3535.204996 2 
7826.861397 3743.865391 7813.95832 3534.987328 0 
7833.153981 3740.773601 7814.109993 3534.812425 0 
7838.75213 3737.135874 7813.950526 3535.187342 0 
7845.072885 3732.941101 7813.851351 3535.076141 2 
7853.920127 3745.159976 7813.800872 3535.169563 2 
7859.881166 3742.870775 7813.790173 3534.881157 0 
7866.177522 3740.031749 7813.968096 3535.181841 2 
7885.952184 3783.951173 7814.136837 3535.063581 0 
7896.066564 3789.845157 7813.800909 3534.970545 2 
7908.868758 3802.160902 7814.03297 3534.870889 2 
7954.046776 3891.233495 7813.808231 3534.86966 2 
7983.924596 3929.909582 7814.195802 3535.094723 0 
7993.819558 3919.246673 7814.014287 3534.950723 0 
8011.867449 3925.054459 7814.08188 3534.794971 0 
8063.836208 3990.799976 7814.226812 3535.038392 0 
8115.001149 4045.113649 7813.851973 3534.817713 0 
8181.208806 4113.902882 7814.038258 3534.827564 1 
8198.813784 4102.821228 7813.948453 3535.11056 1 
8226.804723 4104.006684 7814.230221 3534.979319 1 
8255.166265 4105.176022 7813.824042 3535.235823 1 
8710.172696 4618.088329 7813.936546 3534.790144 0 
8636.892788 4467.768427 7813.835115 3534.978996 0 
8583.818403 4354.811927 7813.767388 3535.069552 0 
8458.175576 4179.869361 7814.137266 3535.134382 2 
8295.022243 3986.925524 7814.211946 3535.086028 0 
8302.996752 3966.910399 7813.946588 3535.051475 0 
8322.167083 3954.926809 7813.780794 3535.083348 2 
8155.852831 3800.854836 7814.069171 3534.775527 0 
8159.193165 3786.755717 7813.815671 3534.835953 0 
8020.774144 3676.900787 7814.064949 3534.842547 1 
8003.962713 3656.082337 7814.162099 3534.888289 0 
8008.201698 3651.049365 7813.772671 3534.973942 2 
8078.224889 3681.234617 7813.80997 3534.971641 2 
8131.895016 3698.006558 7813.773115 3534.812098 0 
8038.183366 3640.803909 7814.145446 3534.786197 0 
8030.908745 3628.964617 7813.811724 3534.851909 0 
8030.970335 3621.877395 7813.937862 3534.994479 2 
8042.028182 3617.752812 7814.087026 3535.240895 0 
8051.085149 3612.999125 7813.879184 3535.036848 0 
8075.79849 3611.901855 7813.760789 3534.773379 0 
8087.886472 3605.820759 7813.995019 3535.031487 0 
8124.077317 3605.018134 7814.093586 3535.010683 0 
8117.072043 3592.989032 7814.04688 3535.230788 0 
8126.203649 3585.108604 7813.832697 3534.923984 0 
8140.236 3577.020559 7814.168463 3535.014181 2 
8168.023371 3569.005488 7814.005077 3534.85852 0 
8166.754613 3558.134261 7814.145368 3534.803103 0 
8191.786116 3547.156157 7813.826482 3534.922588 0 
8236.226916 3535.071501 7814.204075 3535.054233 0 
8248.839635 3522.047661 7813.814915 3535.161679 0 
8257.786693 3508.111796 7814.142466 3535.240342 0 
8294.9704 3490.225163 7813.914326 3534.956399 0 
8337.995723 3468.832789 7814.220581 3534.769093 0 
8336.088277 3452.975658 7813.877613 3535.09289 2 
8425.859919 3418.772981 7814.145993 3534.896035 0 
8473.179138 3388.222475 7814.068622 3535.156054 2 
8063.043976 3472.022697 7813.960287 3535.133611 0 
8009.820358 3478.025202 7814.04529 3534.85705 2 
7993.886998 3476.937756 7813.847392 3535.107398 0 
7990.912919 3472.011718 7813.813797 3535.158642 0 
7988.094507 3465.784378 7814.177735 3534.932784 0 
7986.010036 3460.805349 7813.775674 3535.119954 0 
7982.82833 3456.171668 7813.765989 3534.757468 0 
7980.144143 3450.084611 7814.163522 3534.938119 0 
7977.857308 3444.873809 7813.82173 3534.927666 0 
7976.149011 3440.117019 7814.034716 3534.786009 2 
8074.804775 3369.132108 7814.143407 3534.967695 0 
8071.893826 3360.207204 7813.876337 3535.238333 2 
8456.241581 3068.804072 7813.921117 3535.001617 2 
8275.859421 3176.946791 7813.871571 3534.937751 0 
8266.868459 3159.88756 7813.945219 3534.762602 0 
8351.222171 2998.858741 7813.95072 3534.829479 0 
8284.98255 3033.02245 7814.007145 3534.881561 0 
8287.889469 2961.791862 7813.91757 3534.944244 2 
8270.17397 2946.810976 7814.161939 3534.817796 2 
8053.76818 3203.788275 7813.806129 3534.759761 0 
8034.842347 3208.977246 7814.011378 3534.951768 0 
8027.174037 3199.132949 7814.139519 3534.792496 0 
8018.770509 3188.834738 7813.805097 3535.242681 0 
8009.943479 3178.005817 7813.82216 3535.176028 0 
8185.778267 2804.079305 7813.807589 3534.917736 0 
7984.121167 3172.975159 7814.11198 3535.045137 0 
7968.036135 3179.023919 7814.112933 3535.054315 0 
7959.062194 3167.169062 7814.064076 3535.154541 0 
8036.896308 2915.825455 7813.856309 3534.820345 0 
8015.208404 2917.245828 7813.862841 3535.228913 0 
7988.830566 2930.917938 7814.221594 3535.024044 0 
7972.173755 2920.793754 7813.950073 3535.202022 0 
7935.123059 2994.007662 7813.869758 3534.994226 0 
7918.232821 2992.231738 7813.789362 3535.018956 0 
7899.005657 2996.152295 7813.823271 3534.817851 2 
7881.071356 3005.137348 7814.222392 3535.217664 0 
7865.212802 2990.828702 7813.788009 3535.171206 0 
7845.82453 3023.900849 7814.150119 3534.905095 0 
7830.068787 3033.121713 7814.17914 3534.992542 0 
7814.165466 3050.879212 7813.944565 3535.038525 0 
7799.136874 3059.064323 7813.782751 3535.119695 0 
7783.046062 3043.822113 7813.888651 3534.801719 0 
7754.224408 2905.961922 7813.86957 3535.045765 0 
7729.84927 2868.841963 7814.013429 3534.812072 2 
7717.920664 2932.051437 7814.233278 3534.995194 0 
7402.202286 1687.133397 7814.150289 3535.021074 0 
7484.00511 2245.079429 7813.763616 3534.920577 0 
7660.208641 3006.958181 7814.209102 3535.095515 2 
7644.772504 3017.241853 7813.96521 3535.068566 2 
7393.813967 2366.103861 7814.120285 3534.788375 0 
7346.815783 2353.239855 7814.084139 3534.915053 0 
6930.831818 1491.847568 7813.977125 3535.002482 0 
7192.149005 2312.960404 7814.247676 3535.101292 2 
7276.843801 2558.147965 7813.872365 3535.098912 1 
7674.977394 3301.885981 7813.769488 3534.936035 0 
7177.094162 2530.228591 7813.78155 3535.116667 1 
7589.220444 3204.99676 7813.935233 3534.78441 2 
7698.850621 3377.805518 7813.822785 3534.916405 0 
7693.795373 3381.156924 7814.081458 3534.87719 0 
7704.754492 3404.808583 7814.129672 3535.153497 2 
7716.018987 3425.127348 7814.004789 3535.112788 2 
7712.025313 3427.127154 7813.961699 3534.752707 0 
7710.763135 3432.981188 7813.938742 3535.107297 0 
7714.959778 3442.970292 7813.973964 3534.930222 2 
7723.217052 3456.159197 7813.964633 3534.817674 0 
7728.214714 3465.037418 7813.984078 3534.760087 0 
7730.944342 3471.815536 7813.887278 3534.948834 0 
7727.874119 3472.76695 7813.852331 3535.143106 0 
7724.144298 3475.107119 7814.005894 3534.919611 0 
7720.984273 3477.217593 7813.922318 3534.997408 2 
7720.948781 3481.111059 7813.854705 3535.158559 0 
7726.831351 3492.078669 7813.838782 3534.798404 0 
7731.987866 3497.053414 7813.866077 3534.95258 2 
7730.840832 3499.100155 7813.962667 3535.035174 2 
7727.165691 3501.099945 7814.234007 3534.78981 0 
7724.116895 3502.836338 7814.182916 3535.011193 0 
7720.193457 3504.93881 7814.180803 3534.92773 0 
7716.906403 3506.853121 7814.175138 3535.105184 0 
7713.21418 3508.779844 7814.013743 3534.795532 0 
7730.108513 3517.102525 7813.843935 3534.846379 2 
7729.905939 3519.960012 7814.048959 3534.996771 2 
7731.810167 3522.761627 7813.781945 3535.225859 0 
7733.111571 3524.765953 7813.765669 3534.978466 0 
7734.852291 3528.198584 7814.239659 3534.795748 0 
7736.887394 3531.170462 7813.973479 3535.043797 0 
7737.773583 3532.898617 7813.89898 3535.237763 0 
6602.928461 4807.162723 6788.783295 4805.786974 2 
6594.015248 4812.87723 6788.883353 4806.171187 2 
6588.087242 4819.182312 6788.917959 4806.14741 0 
6480.193939 4835.949904 6789.123268 4806.055511 1 
6467.965856 4847.138937 6788.783977 4806.068147 1 
6480.087521 4855.773636 6789.113895 4806.224915 1 
5963.194098 4964.837374 6789.018711 4806.217681 0 
6143.985991 4995.167692 6789.205444 4806.164452 0 
6654.080415 4905.238739 6789.201426 4805.845663 2 
6655.865969 4908.83478 6788.766851 4806.203211 0 
6658.767092 4913.934809 6789.100621 4806.211031 0 
6661.134713 4918.973889 6789.016542 4805.850569 0 
6663.862826 4923.050519 6789.168716 4806.200347 0 
6667.074154 4929.032612 6789.175262 4806.018252 2 
6631.119986 4973.943973 6788.985933 4805.855977 0 
6717.861665 4910.941377 6788.770429 4806.19208 2 
6724.930117 4908.221855 6788.787743 4806.046086 0 
6729.806635 4904.804594 6788.999297 4805.823727 2 
6730.989403 4909.849918 6788.784758 4805.874116 0 
6694.073807 4993.0513 6788.974685 4806.186633 2 
6703.851818 4987.893402 6789.13698 4806.175973 0 
6713.176014 4983.062242 6788.944225 4806.045999 0 
6720.756216 4979.180158 6789.151976 4805.86788 0 
6727.871535 4975.172405 6788.80996 4806.051652 2 
6731.14426 4982.847704 6788.847737 4806.200895 0 
6734.902297 4990.097035 6788.774622 4806.1417 0 
6739.196953 4997.80938 6788.765816 4806.02076 0 
6818.11068 4990.990502 6788.957393 4806.212498 2 
6823.133904 4987.844373 6789.138471 4806.059917 0 
6829.156616 4984.832696 6788.855916 4806.162831 0 
6833.762854 4981.757892 6788.780712 4805.884389 0 
6839.180297 4979.840672 6789.186041 4806.074557 0 
6843.938376 4976.783778 6789.025452 4806.090673 0 
6849.130813 4974.050074 6788.982373 4806.077765 0 
6854.109454 4971.99819 6788.848525 4805.970134 0 
6838.238691 4922.055919 6788.932633 4806.122595 2 
6842.150292 4920.821104 6788.932512 4806.056908 0 
6845.9038 4919.038429 6788.969739 4805.916653 0 
6849.046321 4917.000451 6789.051042 4805.976618 0 
6853.091123 4914.987083 6788.801175 4805.779498 0 
6856.020861 4913.076627 6789.120171 4805.901674 0 
6859.876701 4910.852544 6789.229439 4806.236156 0 
6863.100734 4909.827964 6788.95629 4806.089425 0 
6867.133883 4908.138922 6788.962021 4806.034175 0 
6870.210026 4906.144533 6788.841083 4805.863826 0 
6873.932962 4904.060822 6789.030479 4806.229283 2 
6879.811272 4902.831521 6788.955901 4806.152395 1 
6906.068604 4924.007076 6789.181893 4805.839465 2 
6883.833703 4897.052064 6788.991139 4805.960405 1 
6904.154608 4907.970578 6788.94656 4806.005342 0 
6888.048542 4889.15285 6788.844767 4805.932425 1 
6888.041772 4883.056788 6789.2166 4806.001798 1 
6882.951321 4874.807683 6789.115624 4806.134283 1 
6884.118504 4870.896103 6789.113565 4806.179776 0 
6879.977624 4863.819466 6789.082171 4805.796227 0 
6877.076542 4859.014064 6788.885692 4806.160245 2 
6879.816128 4856.126831 6788.87065 4806.220736 0 
6882.847409 4855.06721 6788.976078 4806.145951 0 
6885.97006 4853.070845 6788.828376 4805.761833 0 
6889.877633 4850.794976 6789.013631 4806.078954 0 
6894.852659 4847.879255 6788.963236 4806.221163 0 
6899.025358 4845.826802 6789.150939 4805.752981 0 
6902.896268 4843.98311 6788.799209 4806.22281 0 
6908.247173 4840.934901 6789.133055 4805.813301 0 
6912.811732 4838.753705 6788.784037 4805.909141 0 
6918.070915 4836.010114 6788.805091 4805.790976 0 
6924.83096 4831.883467 6788.802808 4805.958593 0 
6929.928443 4829.066439 6788.787546 4806.031102 2 
7037.195694 4838.000783 6789.002265 4805.971051 1 
7303.077585 4854.903204 6788.974033 4806.223852 0 
7039.136314 4822.023241 6789.196662 4806.133487 1 
7028.208142 4814.079718 6789.196788 4805.769874 1 
7037.083423 4806.230825 6788.929015 4805.904338 1 
7219.990939 4792.984106 6788.945314 4806.071899 0 
7218.117574 4779.998122 6788.780492 4805.796017 0 
7214.814561 4765.818038 6789.077119 4805.760255 0 
7210.068821 4752.829383 6788.981306 4805.896405 0 
7217.982587 4739.205339 6788.870258 4805.868901 0 
7295.97858 4709.81692 6788.752388 4805.936722 0 
7183.146638 4718.199176 6788.956597 4805.980061 0 
7178.180001 4707.135611 6789.134399 4805.920941 0 
7170.869718 4694.829712 6789.24284 4806.237291 0 
7186.077834 4677.773331 6788.783308 4806.142395 0 
7305.841369 4620.110427 6789.15265 4806.16019 0 
7298.189811 4604.883956 6788.806595 4805.922398 0 
7329.839295 4571.926853 6789.041299 4806.067875 1 
7340.993773 4547.043687 6788.754598 4805.890411 1 
7453.992863 4466.961194 6789.120472 4805.922864 1 
7435.846806 4450.00487 6789.093805 4805.966523 1 
7818.084583 4153.086644 6788.953815 4805.912417 0 
7997.109976 3985.987123 6788.804812 4806.201345 0 
7623.84755 4200.207461 6789.111535 4805.787361 0 
7799.841417 4022.16813 6788.959759 4805.930712 2 
7636.844983 4058.751058 6789.248587 4806.088757 2 
7865.044744 3796.753185 6789.229168 4805.787608 2 
7717.964379 3877.09964 6788.960472 4806.061185 2 
7386.85451 4168.804277 6788.777708 4806.189093 1 
6942.140921 4631.981523 6788.85151 4806.000897 2 
6927.218646 4638.906321 6788.952242 4805.816197 0 
6912.863783 4645.813776 6788.853557 4805.9552 0 
6897.231907 4657.063316 6789.135912 4805.82689 0 
6886.064374 4662.134499 6789.165647 4805.859118 0 
6881.137684 4662.144815 6788.896726 4805.852063 0 
6877.994455 4656.107198 6789.163248 4806.098965 0 
6875.161475 4650.190956 6789.038058 4806.052396 0 
6871.922479 4644.139568 6788.803293 4805.891125 0 
6867.795889 4637.005534 6788.957321 4805.909672 0 
6865.069311 4631.060879 6789.114872 4806.051217 0 
6860.874195 4623.000784 6789.128107 4806.188569 0 
6856.885283 4616.043754 6788.797687 4805.772967 0 
6852.938569 4607.944413 6788.87503 4806.183024 0 
6999.801611 4078.788277 6789.031989 4806.213085 0 
6968.229233 4106.820047 6789.015481 4805.901711 0 
6942.209615 4121.068774 6789.042836 4805.755505 0 
6918.824308 4122.750158 6788.915177 4806.143619 0 
6893.061036 4146.780048 6788.944836 4806.185231 0 
6871.030832 4154.822944 6789.1238 4806.166115 0 
6849.116698 4167.171487 6789.189082 4805.805266 0 
6795.8659 4682.814112 6789.23829 4805.917511 2 
6791.852389 4682.020279 6788.880596 4805.831622 0 
6789.090326 4682.146078 6788.983333 4806.049941 0 
6784.964851 4680.77617 6789.055446 4806.039159 0 
6780.776327 4680.220622 6788.932778 4806.087364 0 
6776.750671 4679.127614 6789.022595 4806.031503 0 
6772.200558 4677.896395 6788.947618 4806.067255 0 
6767.817883 4677.8867 6789.122522 4805.933783 2 
6723.950812 4464.110812 6789.101294 4806.053201 0 
6710.881091 4456.231891 6789.134823 4806.221417 0 
6682.127969 4437.868156 6789.021358 4805.84282 0 
6655.894326 4398.826804 6789.131979 4805.920653 1 
6594.797426 4267.814757 6788.758017 4805.798097 0 
6579.192371 4277.030612 6789.0796 4806.142929 0 
6564.177007 4284.777218 6788.960184 4806.24489 0 
6424.913918 4030.832706 6788.928673 4806.11473 0 
6414.193518 4068.779968 6788.917932 4805.824609 0 
5907.761859 3199.802755 6788.796026 4806.139827 2 
6412.920911 4171.067384 6789.232647 4806.065237 0 
6393.144187 4181.114626 6789.23589 4806.191613 0 
6372.179383 4193.243907 6789.23971 4806.121754 0 
5513.024518 3046.06931 6789.014683 4805.951526 0 
5613.096528 3288.224867 6788.946415 4805.760446 0 
6135.807574 4016.125089 6789.125177 4805.751092 2 
6154.155056 4085.793108 6788.825701 4806.166915 0 
6168.845863 4145.871727 6789.056742 4806.016774 0 
6143.189111 4159.039389 6788.832011 4806.083299 0 
6115.904015 4173.817901 6789.024912 4805.833398 0 
6600.811807 4640.014622 6789.205152 4806.086326 1 
6592.833932 4644.969835 6788.787851 4806.18046 1 
6605.944702 4663.984267 6789.190906 4806.002276 1 
6595.859355 4667.066083 6789.003368 4805.764412 1 
6341.109191 4502.079069 6789.181327 4806.205053 0 
6357.200797 4531.988069 6788.971827 4806.139908 0 
6370.777458 4559.053838 6788.973206 4805.931472 0 
6384.121738 4584.248118 6789.01487 4806.183546 0 
6396.01274 4605.970022 6789.019871 4806.096672 0 
6397.189856 4621.057723 6789.027132 4805.884558 0 
6365.79199 4637.968038 6789.136834 4805.901345 0 
6329.78412 4656.890202 6788.915757 4806.143311 0 
6351.219272 4678.847083 6789.098364 4806.170069 0 
6290.085152 4677.820191 6789.059976 4806.11261 0 
6269.124029 4688.783183 6788.794082 4805.995767 0 
6581.781301 4767.058952 6788.929313 4806.044041 2 
6588.778974 4775.199184 6788.890713 4806.21883 0 
6592.006907 4781.167845 6788.853389 4806.048897 0 
6595.885883 4788.240223 6789.200242 4805.920003 0 
6598.880425 4793.865999 6788.813314 4805.849697 0 
6602.963082 4800.161678 6788.769766 4805.798234 2 
9071.23187 3139.079742 9125.160844 3138.105899 0 
9071.112925 3140.204926 9124.851666 3138.144226 0 
9072.013878 3142.030979 9124.938268 3138.042852 0 
9071.980163 3143.078981 9125.011682 3138.23707 0 
9072.996826 3145.115071 9125.035967 3138.132709 0 
9074.105294 3145.986209 9124.802712 3138.235719 0 
9074.102208 3147.866026 9124.835417 3137.81529 0 
9074.777704 3149.855183 9124.863524 3137.759574 0 
9076.184925 3150.774368 9125.115473 3138.04785 0 
9076.229294 3153.217138 9124.942076 3137.993173 0 
9076.998117 3154.130344 9124.786025 3138.22828 0 
9076.959325 3155.047707 9125.21535 3138.206151 0 
9077.912778 3157.001317 9125.08886 3137.768072 0 
9078.237527 3158.141572 9124.753791 3138.089734 0 
9078.757598 3159.839208 9125.155024 3137.785302 0 
9079.94439 3160.768549 9124.794876 3137.879315 0 
9079.792917 3163.160349 9125.177165 3137.772211 0 
9082.127487 3163.869242 9125.015384 3137.875604 2 
9084.249586 3164.051408 9124.853884 3137.958911 2 
9088.849115 3162.819235 9124.915062 3138.011893 0 
9094.070552 3160.753922 9125.029965 3138.058079 0 
9099.145495 3159.033756 9124.897813 3138.153093 0 
9102.122964 3157.802837 9125.188395 3137.817355 0 
9103.821386 3157.233271 9124.94667 3137.864303 0 
9106.14362 3155.873835 9124.886514 3138.021107 0 
9108.993077 3155.151898 9125.146711 3137.992663 0 
9109.953306 3154.750596 9125.201573 3138.052421 0 
9110.81983 3153.866635 9124.814315 3138.140382 0 
9111.870558 3154.09428 9124.948461 3137.766052 0 
9113.878036 3153.096274 9125.169145 3137.751 0 
9116.149111 3152.10754 9124.818355 3138.220497 0 
9118.090811 3150.015025 9124.8348 3137.984431 2 
9118.13886 3149.971314 9124.755538 3137.881937 2 
9117.873212 3150.152249 9125.1246 3138.076518 2 
9119.152845 3150.076173 9124.878939 3138.222675 2 
9119.192809 3149.943253 9125.113058 3137.813366 2 
9119.787533 3149.811519 9124.829419 3137.915569 2 
9120.157793 3150.248564 9124.91657 3138.056904 2 
9120.106103 3149.984925 9125.027402 3137.946914 2 
9121.24995 3151.112202 9125.181345 3138.13881 2 
9120.833516 3151.186883 9124.770747 3137.956728 2 
9121.089132 3151.145347 9124.783245 3137.991977 2 
9120.97152 3151.912184 9124.964653 3137.914329 2 
9121.105438 3155.82771 9124.977695 3138.142971 0 
9120.889229 3158.057114 9124.80854 3137.797022 0 
9122.055677 3158.97511 9125.103927 3137.91178 0 
9122.210035 3159.881328 9125.108695 3138.209985 0 
9123.24353 3161.04004 9125.098795 3137.827046 0 
9123.976923 3164.119542 9125.033774 3137.816055 0 
9125.014889 3166.06702 9125.058032 3138.23641 0 
9126.229204 3168.772685 9124.900738 3138.084642 0 
9127.850396 3174.128433 9124.977613 3137.989625 0 
9128.935547 3176.036153 9125.036647 3138.241224 0 
9130.761263 3180.890574 9124.903005 3138.221298 0 
9133.021902 3185.761699 9125.181283 3138.015432 0 
9137.051739 3196.030078 9125.092479 3137.778662 0 
9141.89962 3206.876253 9124.844717 3138.164509 2 
9154.193272 3241.15275 9125.150919 3138.172476 2 
9171.175435 3282.801658 9125.007118 3137.775831 0 
9250.180091 3488.234731 9125.015456 3137.865638 0 
9261.020884 3480.802103 9124.856862 3138.032147 0 
9269.942677 3475.009867 9125.003445 3138.214579 0 
9290.021567 3462.934728 9124.980011 3137.823306 2 
9306.214806 3467.822489 9124.851968 3137.864426 0 
9315.948742 3461.946685 9124.778935 3137.892014 0 
9220.849435 3290.179854 9124.81449 3137.77487 2 
9221.231512 3281.071608 9124.800701 3138.161603 2 
9221.056339 3270.066156 9124.777241 3137.827223 0 
9219.118259 3259.884103 9125.10937 3137.810936 0 
9218.14397 3250.862815 9124.775515 3137.915537 0 
9216.047543 3242.005525 9124.988843 3138.012349 0 
9214.078015 3233.090811 9125.126775 3137.776757 0 
9210.787496 3224.15571 9124.918771 3137.886931 0 
9210.085564 3217.983261 9124.911801 3138.067076 0 
9208.80487 3212.962502 9124.978679 3138.111209 0 
9207.778659 3207.00592 9125.188432 3138.146918 0 
9207.140023 3202.047802 9125.207854 3138.033994 0 
9207.160618 3198.233369 9125.199531 3137.958161 0 
9205.988894 3193.938374 9125.22051 3137.816909 0 
9204.779184 3186.097285 9124.843665 3137.816681 0 
9204.002994 3182.012436 9124.953612 3137.838558 0 
9204.245697 3179.115413 9125.155634 3137.800567 0 
9202.827916 3174.884313 9125.161776 3137.856574 0 
9203.140233 3172.100208 9124.753492 3138.030257 0 
9201.89801 3169.211346 9124.81425 3137.808627 0 
9202.194715 3165.763781 9125.016789 3137.933609 0 
9200.952155 3162.987299 9125.000517 3137.981339 0 
9200.834583 3161.094183 9125.04802 3138.087578 0 
9200.856618 3157.751632 9125.176136 3137.852315 0 
9200.117045 3155.081771 9124.902882 3138.19496 0 
9200.216084 3152.814658 9124.801535 3138.106317 0 
9199.164865 3149.805027 9124.886574 3137.812875 0 
9198.766374 3147.950824 9124.871502 3138.211089 0 
9198.964606 3145.138291 9124.894698 3138.16676 0 
9197.87559 3141.145215 9124.8981 3137.960173 0 
9197.989398 3138.19612 9124.797751 3138.096016 0 
9197.197751 3136.223887 9125.198332 3138.064796 0 
9197.055658 3133.851214 9125.009756 3138.021742 0 
9196.915871 3132.061291 9124.878059 3137.830737 0 
9196.116318 3130.014633 9124.893612 3138.132692 0 
9196.215457 3127.015114 9125.093781 3137.930063 0 
9195.903405 3125.238478 9124.846823 3138.028995 2 
9196.133694 3122.994923 9125.239168 3137.873091 2 
9204.941042 3117.786919 9125.219108 3137.888794 2 
9203.760806 3116.167439 9125.20359 3138.066464 0 
9202.768653 3112.963346 9124.838205 3137.934524 0 
9201.774637 3109.966264 9125.015261 3138.140955 0 
9202.230897 3108.158872 9125.023647 3138.196354 0 
9200.923986 3105.867428 9124.876417 3138.077391 0 
9199.855907 3102.97324 9124.856386 3138.2396 0 
9199.218163 3100.845554 9124.862692 3137.909205 0 
9197.882472 3097.831799 9125.047999 3137.893278 2 
9366.249238 2995.001588 9125.209741 3137.767891 0 
9329.214934 3007.797947 9124.952415 3138.239571 0 
9301.014211 3018.217676 9125.130526 3137.995108 0 
9279.126549 3025.904174 9124.941462 3137.800535 0 
9175.021602 3099.067879 9125.127927 3138.127509 2 
9171.791118 3099.234312 9125.117109 3137.759281 0 
9167.829866 3100.2298 9124.918486 3137.962338 0 
9164.811599 3100.216485 9125.105616 3137.810838 0 
9162.968073 3100.065357 9124.828729 3137.933006 0 
9159.113304 3101.031144 9124.922578 3137.877515 0 
9156.998821 3100.803104 9125.122623 3137.875369 0 
9153.957278 3101.814085 9124.925905 3138.22888 0 
9152.131964 3101.803831 9125.106388 3138.173082 0 
9150.788144 3101.973497 9125.182363 3137.86801 0 
9147.953297 3102.850849 9125.080348 3138.014897 0 
9146.817333 3102.935963 9125.075735 3138.035406 0 
9144.751321 3103.154463 9125.218412 3138.114624 0 
9143.935608 3102.89099 9125.242139 3138.184428 0 
9141.944094 3103.114762 9124.809798 3138.151372 0 
9141.178847 3103.985702 9125.130252 3138.06081 0 
9139.039533 3103.98664 9124.983892 3138.077677 0 
9138.210137 3103.916255 9125.195687 3137.913435 0 
9137.017104 3104.026035 9125.178332 3138.084438 0 
9136.211998 3104.004066 9124.869844 3138.213318 0 
9133.90853 3104.838256 9125.077943 3138.094137 0 
9132.979246 3105.070082 9125.028565 3138.17334 0 
9131.934844 3105.088363 9125.074712 3137.86369 0 
9130.824065 3104.954964 9125.1745 3138.113599 0 
9130.191604 3104.908392 9124.941276 3138.151741 0 
9129.074647 3104.886963 9124.815176 3137.841751 0 
9128.162997 3105.243508 9125.176189 3138.124995 0 
9126.997574 3105.796032 9125.088314 3138.156104 0 
9125.884288 3105.916257 9125.000241 3138.113534 0 
9125.236338 3105.778806 9125.036874 3137.921182 0 
9124.11717 3105.861586 9125.034872 3138.191235 0 
9123.06655 3105.959372 9125.054834 3138.008154 0 
9122.117765 3106.246109 9124.909895 3137.942412 0 
9119.883072 3106.975071 9125.034163 3137.796069 0 
9118.968578 3106.960352 9125.171065 3138.216152 0 
9118.006385 3107.009378 9125.122256 3138.140673 0 
9117.175635 3106.872497 9125.004207 3138.161973 0 
9115.901304 3106.791082 9124.833155 3137.768473 0 
9113.902668 3107.118027 9125.209708 3138.219218 0 
9112.8274 3108.014542 9124.977371 3138.195165 0 
9112.010651 3108.137266 9124.887577 3138.143723 0 
9109.862337 3108.17174 9125.189793 3138.080915 0 
9108.882092 3108.110857 9125.047068 3138.138477 0 
9107.870236 3107.919324 9125.02915 3137.795871 0 
9107.041821 3107.783357 9125.207844 3138.193125 0 
9105.824438 3108.790999 9125.211598 3137.977106 0 
9105.159027 3109.171306 9124.946324 3138.236427 0 
9102.935848 3109.173695 9125.181591 3138.196499 0 
9102.060961 3108.819168 9125.090222 3138.173298 0 
9101.240908 3109.030015 9125.004213 3137.873 0 
9098.890872 3109.801281 9124.761477 3138.011108 0 
9097.970604 3110.040627 9125.056979 3137.762425 0 
9097.073983 3110.014823 9125.20555 3138.148422 0 
9095.055822 3110.167148 9124.875528 3137.964849 0 
9093.088454 3110.071852 9124.951276 3137.774302 0 
9091.995548 3110.882868 9125.220801 3137.806509 0 
9089.952036 3111.061023 9125.229807 3137.942944 0 
9086.841038 3110.98402 9125.065944 3137.98191 0 
9086.035301 3112.077421 9125.243019 3137.755905 0 
9083.868048 3112.049997 9124.768331 3138.192031 0 
9081.814821 3114.223881 9125.090453 3138.120643 2 
9081.141029 3115.215981 9124.835492 3137.979484 2 
9080.037833 3115.036768 9125.003786 3137.783381 2 
9076.169636 3114.974587 9124.83989 3137.871672 0 
9071.78561 3115.819697 9125.064616 3137.876648 0 
9069.053717 3115.88056 9125.108558 3137.839018 0 
9065.207981 3117.101577 9124.844923 3137.826029 0 
9059.901575 3116.863254 9124.76806 3137.966395 0 
9055.837135 3118.108513 9124.837038 3138.228164 2 
9049.074495 3118.92253 9124.957648 3137.862328 0 
9051.209299 3122.211434 9124.895709 3138.128935 0 
9051.936021 3124.985599 9124.750606 3137.971631 0 
9053.055296 3127.065222 9125.098279 3137.859013 0 
9054.195782 3129.956837 9124.948031 3138.153763 0 
9054.808414 3132.042954 9125.229792 3137.959989 0 
9071.156208 3135.247852 9125.176384 3138.243343 2 
9071.106365 3136.763422 9125.221507 3137.93086 2 
6633.935952 452.9291552 6678.043188 451.895251 0 
6631.890589 454.1888977 6677.774186 452.0766096 0 
6628.924497 455.774792 6677.79824 452.229793 0 
6627.090014 457.1465193 6677.838806 452.0357956 0 
6622.853357 459.0368373 6677.939558 451.9117712 0 
6616.829792 461.9193501 6678.12176 452.236 0 
6573.917202 472.0481442 6678.229343 451.7735676 0 
6575.061566 475.2008505 6677.954428 452.2475186 0 
6576.880006 478.2476163 6677.89277 452.0205946 0 
6578.186514 480.9169553 6677.847204 451.8610109 0 
6579.941747 483.8954446 6677.840804 451.7817612 0 
6581.791964 486.92961 6678.067557 451.8953207 0 
6583.216447 489.7571152 6678.057092 451.796239 0 
6584.926465 492.9288522 6677.782239 452.0936674 0 
6586.226996 494.7615821 6678.117235 452.0385626 0 
6588.212433 497.8216628 6678.036081 451.8424382 0 
6588.819279 501.1788508 6678.113033 451.7557932 0 
6590.845806 504.210237 6677.866804 452.0375534 0 
6591.855682 506.9576079 6678.069315 451.8976456 0 
6594.137218 509.8868714 6678.042966 452.1036652 0 
6594.893987 511.8500583 6678.149904 452.0704519 0 
6597.028911 515.1821431 6677.914119 452.0059069 0 
6598.193725 517.7813542 6677.79447 452.1561578 0 
6599.853017 521.0805508 6678.248596 451.9222962 0 
6602.009402 524.1116288 6677.928089 452.1052077 0 
6603.071866 527.0448934 6677.892761 452.1775475 0 
6632.752501 501.2120757 6677.825193 452.1397192 2 
6637.848947 498.1181594 6677.993384 451.9929337 0 
6642.218218 495.8932886 6677.813386 451.9971283 0 
6645.825432 493.9775048 6677.753035 451.7691569 0 
6649.008859 492.7975047 6678.175315 452.111876 0 
6652.128055 491.1739107 6677.784172 451.887457 0 
6655.03554 488.9622615 6678.242665 451.8574054 0 
6656.757155 487.8854258 6677.784953 451.7596561 0 
6658.847501 486.860146 6678.149375 451.9464486 0 
6661.228305 485.8927597 6678.189382 452.1965232 0 
6662.036048 485.7527678 6677.943651 452.11148 0 
6663.980273 484.9466866 6678.130637 452.2391316 0 
6664.994191 484.0559516 6678.101008 451.8722468 0 
6666.979862 483.1351798 6678.009704 451.7654019 0 
6667.847441 483.0023686 6677.872807 451.8545962 0 
6669.137794 481.9077602 6677.864252 452.2352958 0 
6670.017906 480.7636277 6677.931744 451.9962116 0 
6670.906387 480.8711266 6677.942735 452.1924357 0 
6671.873894 480.1363862 6678.053916 452.104167 0 
6672.833073 479.9345526 6678.093299 452.0772641 0 
6674.240504 478.9443062 6678.199511 451.9703666 0 
6674.829486 478.9592148 6677.985768 451.9269274 0 
6676.211583 478.1085757 6678.031524 452.0993777 0 
6676.766336 478.1457759 6678.084673 452.034242 0 
6678.159404 476.7664178 6677.780454 451.815791 0 
6678.887544 476.9731883 6677.758227 452.0114388 0 
6679.859574 476.0621423 6677.865606 451.9426473 0 
6681.246695 476.2089044 6677.769911 452.2371992 0 
6681.903211 475.2194224 6677.957566 451.9826967 0 
6682.928637 475.1933343 6678.159624 451.8902205 0 
6684.05191 473.9411476 6678.239598 452.0682459 0 
6684.836924 474.0742717 6677.852488 452.2463272 0 
6686.090689 472.8829415 6677.812118 452.2282338 0 
6687.10613 471.8203448 6677.989673 452.2157043 0 
6688.132487 472.1052784 6677.908352 452.1291821 0 
6689.064183 470.928263 6678.116381 452.2173934 0 
6689.897685 470.8239471 6677.95009 452.0763225 0 
6690.767281 469.8597141 6678.216543 452.0691914 0 
6692.050862 470.2061413 6677.887437 452.1377853 0 
6693.030413 468.9899252 6678.134113 451.8711024 0 
6694.122867 469.1962307 6677.849336 451.9789965 0 
6694.766576 468.0890088 6677.944701 452.1490627 0 
6695.944287 468.1030524 6678.028245 451.75847 0 
6696.781315 466.8946262 6678.225863 451.9290008 0 
6697.968573 466.9259535 6677.755323 451.9858547 0 
6699.035668 466.2218664 6677.805046 451.8365294 0 
6701.178008 464.9424834 6678.224315 451.9584206 0 
6703.182409 464.1084273 6678.079523 452.0552754 0 
6704.054658 463.1788592 6677.784272 452.0712335 0 
6705.017868 462.9789727 6677.970296 452.2121553 0 
6705.832025 462.2485411 6678.220625 451.8633405 0 
6707.893167 461.1964887 6678.042341 452.1117406 0 
6708.872442 460.0476646 6677.847595 452.15811 2 
6709.019531 458.9026415 6678.244639 451.9475386 2 
6709.095125 458.2189542 6678.155959 452.0275336 2 
6709.077381 456.9854822 6677.832809 451.8820395 0 
6707.914341 455.8670809 6678.203273 452.1822095 0 
6708.096054 454.9235693 6678.144365 452.1780786 0 
6706.92211 454.1149901 6677.791419 452.0652776 0 
6707.061479 453.0837604 6677.927018 452.1839211 0 
6705.881425 452.0246136 6678.092031 452.1509559 0 
6706.177255 451.0866705 6677.848495 452.02238 0 
6705.055625 449.7544538 6677.799914 451.8830062 0 
6704.989936 448.8827226 6678.015046 452.1542774 0 
6703.999803 447.9683187 6678.086487 451.845857 0 
6704.141888 446.9808517 6677.773936 451.8139983 0 
6702.845842 445.8153547 6678.129276 452.1573205 0 
6703.149115 444.8062941 6678.091242 451.78054 0 
6702.080908 443.9332727 6678.181496 452.0081628 0 
6700.769943 442.7799905 6677.780543 452.0755678 0 
6700.784444 441.8304565 6678.208574 452.0243803 0 
6699.963179 440.9736197 6677.928658 452.2129826 0 
6700.191938 439.7651447 6677.80884 452.0838263 0 
6698.995996 438.8327753 6678.147825 452.0918381 0 
6698.89813 438.0271004 6677.999159 451.7972451 0 
6698.083395 436.8404003 6677.827785 451.9143022 0 
6698.023673 435.7592811 6678.172465 452.0436162 0 
6696.789272 435.2030079 6677.869184 451.8237159 0 
6696.783464 433.8277581 6678.098096 451.9966435 0 
6696.051378 432.776754 6677.959626 451.9933161 0 
6695.791899 432.0184658 6677.827142 452.0378951 0 
6695.101241 431.2249669 6677.879733 452.2493711 0 
6694.002067 429.1288919 6677.796616 451.8354618 0 
6693.219292 426.8744013 6677.999764 451.9929653 0 
6691.883682 425.9222291 6677.786582 451.922954 0 
6690.875237 424.9057656 6677.99667 451.9087013 2 
6689.983524 424.8447661 6678.155345 451.7849014 2 
6689.87152 424.864971 6678.028217 451.9134188 2 
6689.133437 424.1053598 6678.201314 451.9846778 0 
6687.080327 424.8310472 6677.984049 451.832394 0 
6686.209939 425.0306652 6677.917856 452.1792314 0 
6685.155067 426.1676199 6677.922197 451.7887489 0 
6683.839849 425.9587782 6677.961703 451.965086 0 
6683.114544 427.2083728 6678.123787 451.8480675 0 
6681.803139 428.0291322 6677.882969 451.9246591 0 
6681.144103 428.1611863 6678.088078 452.0275399 0 
6680.016546 429.0393918 6677.762218 451.8468728 0 
6679.120439 428.9962667 6677.929267 452.0803781 0 
6677.776932 430.0971226 6678.009609 452.1819984 0 
6677.014743 430.1818062 6678.220747 452.1045916 0 
6675.890584 430.9324503 6677.819678 451.7551282 0 
6674.890823 431.1934649 6677.853196 451.9439621 0 
6673.972597 431.9861645 6678.118621 451.8667003 0 
6672.897351 431.9566991 6678.14424 452.1638969 0 
6672.246091 433.156458 6677.76077 452.1165299 0 
6670.902725 432.9400365 6677.946908 451.9296566 0 
6669.787159 434.2065175 6677.861655 452.0519017 0 
6669.138324 433.8324023 6677.906493 451.7789081 0 
6668.014853 434.9761708 6677.784036 452.1556758 0 
6666.919636 434.887232 6677.849638 452.1422329 0 
6666.123397 436.2182591 6677.758933 451.7707474 0 
6664.924958 436.1531734 6678.184644 451.9210491 0 
6664.059631 437.1954141 6677.787579 452.2123561 0 
6662.885451 437.9844871 6677.892013 451.9226098 0 
6661.941005 438.0036676 6678.224511 451.8293283 0 
6661.08607 438.8810047 6677.858236 451.8509226 0 
6660.107176 438.8922728 6677.756598 451.7768113 0 
6659.029505 439.8562363 6678.169044 451.9029014 0 
6656.824495 441.1779774 6677.923649 451.9994536 0 
6656.081151 440.8582931 6678.170503 451.8907822 0 
6654.803707 442.2080819 6677.853138 451.9391578 0 
6653.942569 441.9951509 6678.111768 452.1335736 0 
6653.248818 443.086279 6678.212902 452.0848885 0 
6651.217284 443.8211383 6678.185811 452.0744592 0 
6649.963411 444.1924095 6678.101271 452.2429159 0 
6648.798646 445.0203148 6677.895817 451.8731412 0 
6646.948292 446.069466 6678.122595 451.779443 0 
6646.177759 447.0430976 6677.920225 452.2314662 0 
6644.001179 448.0233634 6677.920624 452.1937484 0 
6641.768514 448.7823915 6678.077322 451.7673328 0 
6640.11867 450.0402239 6678.102221 452.0859541 0 
6638.111362 451.0380323 6677.910413 451.8247732 0 
8293.980442 380.7616839 8386.817689 380.0290876 0 
8289.031999 383.9635064 8387.152229 380.2302908 0 
8282.782972 387.0248236 8386.759734 380.2107314 0 
8274.817921 390.929959 8387.192198 380.0691007 0 
8266.203322 395.8628217 8387.012849 380.2218367 0 
8255.895213 400.8401711 8387.239169 379.7638836 0 
8243.130395 408.0913907 8387.099838 379.9917571 0 
8227.879423 415.7602511 8387.06653 380.1098648 0 
8208.771935 426.1342195 8386.888952 380.0539336 0 
8184.847726 438.7911812 8387.034224 379.8806982 0 
8188.066005 445.0439582 8386.84143 380.133926 0 
8192.223917 450.7836273 8386.953027 380.1772396 0 
8194.896449 457.2158759 8387.149076 380.0416621 0 
8197.806047 462.1382458 8387.055546 380.186442 0 
8200.979636 467.9053834 8386.928199 380.1090595 0 
8203.915635 474.2447295 8386.968924 379.9375695 0 
8210.128949 485.1078767 8387.241503 380.2266749 0 
8213.149058 491.0257275 8386.857373 379.9650627 0 
8215.819686 495.9488027 8386.848989 379.7936028 0 
8218.98243 502.0520155 8387.220842 380.128879 0 
8223.017891 508.1199186 8386.920541 380.0739384 0 
8226.008164 514.2260869 8387.01038 380.2378009 0 
8228.88147 519.1885795 8387.09686 380.0471048 0 
8234.183309 524.8157847 8387.234674 380.0622581 2 
8068.173661 699.2261774 8387.038933 380.0727193 0 
8075.001905 712.1463061 8386.787782 380.0715905 0 
8082.845109 725.8867707 8387.115193 380.0775388 0 
8090.188786 739.0860356 8386.956418 379.9566775 0 
8089.955954 763.126959 8386.780616 380.2141186 0 
8098.103046 778.0409963 8387.201919 380.2345161 0 
8186.979576 675.0487798 8387.031621 379.9128849 0 
8207.114565 665.0162953 8387.225143 380.038226 0 
8224.992473 655.014076 8386.860945 380.2443775 0 
8240.910382 645.8987273 8387.065968 380.0054908 0 
8256.035498 637.9311612 8386.83303 379.9742842 0 
8264.767197 640.0394475 8387.180962 379.9731511 0 
8269.916406 649.2115776 8386.93727 379.7694523 0 
8276.002574 659.8891891 8386.753968 380.2321496 0 
8282.187969 671.0355893 8386.895035 380.0525335 0 
8287.801885 682.8701775 8386.840759 380.0443572 0 
8295.134254 695.9517047 8387.038735 379.7946356 0 
8302.100432 708.8547026 8387.050126 379.8859301 0 
8310.035864 722.133156 8387.110214 380.0530606 2 
8277.922603 949.041176 8386.776212 380.0890099 2 
8297.002754 946.9634813 8387.108462 379.7553274 2 
8312.10267 975.1124305 8387.237477 380.0406394 0 
8327.89802 1004.882512 8386.843173 379.9499044 2 
8343.002689 1075.933932 8387.244262 379.8869426 2 
8368.135637 976.0329963 8386.931578 379.9860692 2 
8387.137699 818.2317046 8387.121999 379.9235627 0 
8400.114861 810.9822135 8387.226623 379.787464 0 
8413.773389 813.7528349 8387.126474 380.026143 0 
8436.966316 908.9849361 8387.03147 379.8189867 1 
8451.847367 899.0189475 8387.109626 379.9953865 1 
8465.151459 871.202799 8387.195291 379.9041482 1 
8487.886731 913.1895525 8387.041091 379.7723685 0 
8503.972549 904.222669 8387.008438 379.8602477 0 
8519.204374 895.8804369 8387.03381 380.0692341 0 
8548.11265 935.0104336 8387.106698 380.1360399 0 
8597.013269 1027.983172 8386.912183 380.2295848 0 
8564.218108 872.1936534 8386.798572 379.8154748 0 
8577.962601 864.1581977 8387.060861 379.8640599 0 
8593.110997 856.0061523 8387.018208 380.2477281 0 
8606.945705 848.8092989 8386.770097 380.1682536 0 
8743.781968 1081.028534 8386.778501 380.2363414 0 
8635.158971 833.0623116 8387.055576 380.0216216 0 
8649.822745 824.9122737 8386.907662 380.0860137 0 
8664.145446 818.0698445 8387.065599 380.1135539 0 
8487.013498 527.1141701 8387.179029 380.2260988 0 
8486.022368 517.9898901 8386.840159 379.8833645 2 
8491.246042 515.1083668 8386.881093 379.9417471 2 
8789.167666 865.9011892 8386.860001 380.1996336 0 
8745.179723 785.888502 8387.185975 380.0886947 0 
8750.200814 767.9915506 8386.860316 379.7735588 0 
8765.153824 759.0179778 8387.109573 380.04927 0 
8780.837822 749.9251711 8386.912824 380.1013202 0 
8824.789341 765.8418526 8387.077419 380.0617089 0 
8841.081743 757.1675776 8387.195073 380.0777851 0 
9100.025944 932.8261659 8386.769532 379.9436101 0 
9098.977355 897.8795329 8386.893244 379.9070786 0 
8647.018035 556.8292187 8387.245773 379.9688485 0 
8623.070769 509.8560896 8386.992407 379.9745935 0 
8616.124067 496.8519799 8386.773863 380.2118898 0 
8609.027151 484.9366873 8387.06321 380.0664922 0 
8606.02854 475.8906289 8386.878201 379.8602827 2 
8633.808206 460.8232744 8387.188068 380.0841509 2 
8629.89944 451.2075999 8386.777761 380.1267955 0 
8625.837133 441.9210047 8386.783874 380.1051678 0 
8578.000223 422.7796474 8386.824016 379.8209928 1 
8679.885737 437.0664237 8387.045586 379.7598044 2 
8589.168404 412.0694498 8387.221694 379.9455547 1 
8594.756137 407.0349041 8386.762047 380.0346771 1 
8576.175533 397.890248 8387.14496 380.2337394 1 
8571.963522 392.0830275 8387.06789 380.1129627 1 
8556.040627 386.0956513 8386.989758 380.1277603 1 
8579.766656 380.0236323 8386.982928 380.0168795 1 
8764.05328 369.0569444 8387.087872 380.1890166 0 
8574.873368 368.8834586 8387.198821 379.7917717 1 
8816.202908 340.1705152 8386.987326 380.2090455 2 
8594.955419 353.9993733 8386.993723 379.8809523 1 
8947.139621 291.8886823 8386.864692 379.8531436 0 
9003.22171 263.182582 8387.216106 380.0123374 0 
9079.028233 225.9558645 8386.890098 380.0448895 0 
9107.229497 196.1230258 8386.811769 380.0327764 0 
8872.92997 223.1496413 8386.971793 380.0533383 0 
8864.7831 208.9206141 8387.09511 380.2360083 0 
8857.841129 193.8324364 8387.195054 380.0465486 0 
8850.08181 179.9387763 8387.177501 379.9714309 0 
8899.077459 139.7921926 8387.074574 380.0491686 0 
8900.224775 119.0406808 8386.811506 380.003008 0 
8877.246545 110.9516036 8386.797897 380.2260421 2 
8869.824629 93.85966651 8387.008819 380.0045995 0 
8631.759308 224.2306116 8386.807938 379.7924078 2 
8626.901226 217.1530478 8386.778416 379.9923549 0 
8622.235484 210.2234699 8386.788903 380.0672939 0 
8805.912246 56.21640437 8386.788725 380.2397049 0 
8797.758597 41.11329921 8387.038874 380.2333716 0 
8788.90398 2.100379449 8386.98638 379.9005253 2 
8569.801983 197.0342771 8386.876567 379.8766124 2 
8560.143944 196.135386 8387.131212 380.1532515 0 
8556.115998 189.1891497 8387.195659 379.7672232 0 
8552.092198 181.2240753 8387.009578 380.0776817 2 
8579.197545 132.0484816 8386.894976 379.8597914 0 
8574.014886 121.9337003 8386.849496 380.0234829 0 
8564.797 117.1383699 8387.006854 379.9509795 0 
8554.988749 115.2432341 8387.101505 380.0407324 0 
8550.027511 105.2280723 8387.167345 379.9214548 0 
8544.113458 94.04855676 8386.824706 379.9794558 0 
8536.987707 84.77036554 8386.996679 379.829904 0 
8524.244441 87.75625706 8387.157586 380.1919861 0 
8434.054739 269.8025614 8386.801778 379.8196246 0 
8428.986262 271.9012739 8387.093107 380.0332612 0 
8423.789644 274.8499619 8387.234241 380.0283931 0 
8419.843196 277.0857456 8386.819126 380.1207073 0 
8416.063818 279.2364703 8386.792162 379.9272762 0 
8412.035027 280.8668684 8387.156732 379.7727336 0 
8407.887234 283.9034111 8386.852638 379.8816748 0 
8403.909668 285.7602234 8386.823661 380.2144068 0 
8400.812785 286.8754384 8386.784031 380.0490464 0 
8398.026712 289.1271387 8386.832308 380.0663561 0 
8395.227101 290.8165483 8386.844749 379.8202967 0 
8392.152294 291.9138748 8387.191004 379.9661118 0 
8388.900345 294.233166 8387.143388 380.1853721 0 
8386.850034 295.0501201 8387.208106 379.9872684 0 
8384.203531 295.8107433 8387.118943 379.8631993 0 
8380.820967 298.1926041 8386.827606 379.8837514 0 
8378.818042 298.8616374 8387.182798 380.0947548 0 
8376.238776 300.7651054 8386.911111 380.2158768 0 
8373.831654 302.0058602 8386.786174 380.2339477 0 
8372.169735 303.2271775 8386.95006 379.8200801 0 
8370.210344 303.8434476 8386.755452 379.810378 0 
8367.143568 305.2135579 8387.047646 380.0970989 0 
8364.774301 306.9165895 8387.210298 379.8452679 0 
8362.859194 307.7879043 8386.979019 379.927236 0 
8360.899542 308.9118172 8386.771991 379.8883179 0 
8358.926923 309.9331018 8386.854195 380.0085763 0 
8357.188962 310.8903682 8386.992524 380.1086971 0 
8354.867546 312.1925835 8387.178777 379.8278892 0 
8351.786031 313.1842293 8386.888267 380.1795989 0 
8350.147787 315.1859135 8387.026698 380.1720884 0 
8347.852503 315.9869961 8386.767356 379.9616965 0 
8347.0249 316.9963756 8387.138932 380.1744421 2 
8344.158193 317.1609234 8386.81276 379.8351154 0 
8215.844025 145.9169547 8387.093692 379.7829873 0 
8220.057323 164.8362157 8387.141684 380.1748686 0 
8232.778799 195.0704614 8386.752758 379.8148304 0 
8240.004691 213.891025 8387.244429 379.9024779 0 
8233.826938 217.0211271 8386.824566 379.9294414 0 
8226.758123 219.8419226 8387.141138 380.0330235 0 
8231.088298 235.0300704 8386.957466 379.996491 0 
8238.940994 251.0202257 8387.081606 380.035019 0 
8246.18718 263.9252981 8387.068006 379.9945033 0 
8253.011514 276.9596905 8386.919372 380.0403131 0 
8257.780152 286.9221297 8387.105144 380.0348426 0 
8263.063155 297.0995728 8387.187321 380.1400932 0 
8266.8707 304.7618868 8386.819535 379.878823 0 
8271.853809 313.2106726 8387.161847 380.1921075 0 
8274.990743 318.8693122 8386.938599 380.1817368 0 
8278.139538 324.7702049 8386.966756 380.0767183 0 
8280.945503 330.7847619 8386.821222 380.2070168 0 
8283.994452 335.9905935 8386.99733 380.0246044 0 
8286.162723 340.8524734 8386.809447 379.975878 0 
8288.202046 345.2467675 8386.865971 379.8227461 0 
8290.758654 348.9355058 8386.951569 379.8624636 0 
8292.896178 352.8634157 8386.804571 380.1369214 0 
8294.982728 356.9931697 8387.068658 379.8722658 0 
8296.013375 359.7854139 8387.198984 380.2088776 0 
8297.820176 363.7702057 8387.165894 380.0646282 0 
8300.010799 366.9132243 8386.839233 379.9235225 0 
8302.015698 369.8986795 8387.1494 379.967744 0 
8304.895447 374.7653717 8387.04049 379.9041013 2 
8299.950877 378.2420592 8387.016565 380.0970559 0 
9241.855475 663.0711361 9297.983977 662.0882028 0 
9241.814306 663.8026355 9298.210469 662.0776804 0 
9242.838049 666.1594527 9298.036558 661.9082252 0 
9245.179658 667.9524523 9298.222853 661.9404577 0 
9245.115677 668.8120859 9298.11398 661.8813744 0 
9245.960765 671.0133807 9298.099118 662.1062125 0 
9247.028752 671.8896084 9297.760314 662.2296299 0 
9247.881668 674.0268788 9298.076686 661.9871425 0 
