ply
format ascii 1.0
element vertex 945
property double x
property double y
property double x_origin
property double y_origin
property int lab
end_header
2550.889363 4713.977166 2546.804358 4752.094464 0 
2549.771399 4715.173266 2546.86067 4751.958765 0 
2548.886823 4714.825833 2546.846258 4751.770498 0 
2546.794533 4716.182517 2547.211215 4752.007489 0 
2545.07548 4716.823149 2546.996742 4751.795916 0 
2543.994727 4718.160521 2546.984986 4752.005452 0 
2542.093712 4718.928888 2546.962824 4752.077778 0 
2541.178852 4719.229425 2546.958313 4751.818215 0 
2539.956591 4720.012671 2547.162679 4751.97799 0 
2537.935937 4720.773349 2547.186755 4752.07276 0 
2535.849182 4721.783013 2547.093258 4751.893715 0 
2535.215529 4723.054473 2547.151204 4752.041009 2 
2534.127622 4722.897946 2547.086925 4751.872349 2 
2532.808467 4722.821911 2547.127801 4752.152179 2 
2532.000799 4722.840625 2546.979957 4751.929651 0 
2522.820049 4711.18827 2546.997866 4752.02664 0 
2521.950942 4710.910545 2546.75463 4752.136879 2 
2520.933894 4712.191384 2546.959639 4752.033076 0 
2176.224397 4206.802897 2547.176791 4752.189926 0 
2299.10737 4412.077996 2546.980936 4751.984992 0 
2198.225942 4301.817861 2547.107341 4751.784409 0 
2513.889772 4713.985142 2547.186588 4752.140572 2 
2515.075766 4716.916545 2546.820223 4752.145816 0 
2518.854815 4724.068089 2546.922456 4752.055757 0 
2520.228634 4725.927086 2546.942636 4751.912528 0 
2523.86847 4732.152274 2547.195604 4751.842867 2 
2524.205171 4733.122395 2546.782794 4752.062541 2 
2523.950391 4733.013729 2546.797532 4751.926333 2 
2523.08159 4734.154873 2546.960742 4752.221362 0 
2521.890014 4733.89733 2547.111934 4752.215781 0 
2519.063875 4736.182157 2547.111597 4752.16869 0 
2517.000246 4736.784052 2546.974447 4751.978879 0 
2514.961138 4738.167083 2547.141407 4752.079608 0 
2514.069357 4739.087011 2547.172476 4752.024528 2 
2513.959407 4739.205269 2546.837069 4752.159798 2 
2510.968999 4738.884601 2546.836131 4751.800589 0 
2494.789474 4736.046874 2546.771951 4751.929488 0 
2497.194204 4738.133886 2546.895269 4752.008078 0 
2498.066042 4739.756865 2546.926769 4751.816288 0 
2500.790918 4742.151216 2547.045167 4752.002056 2 
2501.068298 4743.936574 2546.831665 4751.887655 2 
2497.773585 4744.75414 2547.162183 4751.982992 0 
2496.20941 4746.249251 2546.89279 4751.928409 0 
2493.883852 4746.978921 2546.978998 4751.923326 0 
2489.775795 4749.000949 2547.102814 4752.219998 0 
2485.884834 4751.248083 2546.978077 4752.200877 0 
1537.754949 1759.154845 1553.767165 1757.795867 0 
1538.056061 1760.062332 1554.047923 1757.87436 0 
1538.248907 1761.129587 1554.012015 1757.772492 0 
1539.133728 1761.924198 1554.005484 1758.093137 0 
1538.923449 1763.148274 1553.771546 1758.057302 0 
1538.877195 1764.000543 1554.230628 1757.90299 0 
1539.751492 1765.083442 1553.872988 1757.886327 0 
1540.081526 1766.101065 1553.837204 1758.086474 0 
1540.00591 1766.854369 1554.132341 1757.811972 0 
1541.166701 1767.930264 1553.936331 1758.165607 0 
1540.809851 1769.198346 1554.188099 1758.193579 0 
1540.872544 1769.943583 1554.036716 1758.045993 0 
1541.841857 1771.058262 1553.853295 1757.969052 0 
1541.808806 1771.833923 1554.122042 1757.810298 0 
1542.167365 1773.24503 1553.946625 1757.998891 0 
1542.096095 1774.033828 1553.835365 1757.852006 0 
1543.138197 1775.217706 1553.913977 1758.054898 0 
1542.89797 1777.100309 1553.970505 1757.957822 0 
1544.048655 1777.908604 1553.901401 1758.171199 0 
1544.102187 1779.188117 1553.967192 1758.194044 0 
1544.99638 1781.070487 1553.913096 1758.055185 0 
1545.154409 1782.785139 1554.115483 1758.071774 0 
1545.780169 1783.812108 1553.820665 1758.126265 0 
1546.095936 1785.90603 1554.22827 1757.984133 0 
1546.873736 1787.892248 1553.789031 1758.021706 0 
1547.242557 1790.009536 1554.229528 1758.041211 0 
1548.16814 1790.880928 1553.96241 1758.020328 2 
1548.819046 1791.179602 1553.964372 1758.065425 2 
1550.000088 1791.127469 1553.87061 1757.904498 2 
1550.162607 1810.236094 1554.226272 1758.192776 0 
1551.798202 1808.796937 1554.069041 1758.144138 0 
1553.952967 1808.047311 1553.878272 1758.076703 0 
1555.189559 1807.917303 1553.848409 1758.182116 0 
1558.176839 1806.827936 1553.973327 1758.09498 0 
1558.958865 1806.185737 1553.865307 1758.02791 0 
1561.115339 1806.079679 1553.843335 1757.865427 0 
1561.957148 1804.963946 1554.019925 1757.869755 0 
1563.95004 1804.996197 1553.812531 1757.998241 0 
1565.043134 1804.131572 1553.89238 1758.246101 0 
1566.928883 1803.020651 1554.072804 1757.868442 0 
1568.187954 1803.171212 1553.800558 1758.114793 0 
1569.249149 1803.023885 1553.959773 1757.958013 0 
1570.959622 1803.07508 1554.235923 1757.82496 0 
1676.90476 2042.829259 1553.940387 1758.111908 2 
1723.043205 2119.210312 1554.231663 1758.243244 2 
1699.95651 2046.794194 1553.991485 1758.249644 0 
1642.175766 1897.133865 1554.245745 1757.854649 2 
1645.904516 1895.068548 1553.973091 1757.842471 0 
1638.989761 1875.023649 1554.207264 1757.98891 2 
1604.797534 1823.917037 1554.196923 1758.007155 0 
1605.242117 1820.182846 1554.082116 1757.896877 2 
1606.762105 1819.772503 1553.758785 1758.05531 2 
1610.232815 1818.240447 1554.048554 1757.939325 0 
1611.784641 1816.790039 1553.938969 1758.210407 0 
1614.173904 1815.934713 1553.815056 1757.828421 0 
1616.753262 1815.038147 1553.920891 1757.993023 0 
1622.811796 1812.878156 1554.231932 1757.85933 2 
1815.045193 1949.178855 1554.116485 1758.03731 0 
1826.111702 1942.948601 1554.184187 1758.123807 0 
1835.971104 1938.192972 1553.929117 1757.953919 0 
1733.18342 1864.22767 1554.143244 1758.218061 0 
1733.76771 1857.832212 1554.178468 1758.191614 2 
1742.016926 1854.243524 1553.770035 1758.020188 0 
1749.031672 1850.940926 1553.76321 1758.093468 2 
1748.069082 1842.245143 1554.202798 1757.864275 0 
1748.173998 1836.069283 1554.151585 1758.035699 0 
1755.767883 1832.085772 1553.909506 1757.988987 0 
1736.028745 1818.088623 1554.192906 1757.962164 0 
1733.066293 1810.08615 1553.930225 1758.084003 0 
1730.168362 1803.858693 1554.025617 1757.935288 0 
1707.852217 1788.045652 1554.205476 1758.133889 0 
1705.236578 1782.218686 1553.977356 1758.055661 2 
1712.213829 1778.930154 1554.169935 1758.137826 0 
1722.249437 1774.07152 1553.923526 1757.76732 2 
1739.907293 1770.083032 1554.006307 1758.186037 0 
1892.921654 1768.949213 1553.898201 1758.237947 0 
1921.785363 1758.078426 1554.07195 1758.203725 0 
1713.187119 1752.847567 1553.889013 1757.789337 0 
1689.143219 1749.844489 1554.173225 1758.129798 0 
1687.813175 1745.900582 1553.935458 1757.777004 0 
1687.080736 1741.855394 1554.16483 1758.080173 0 
1686.176914 1737.838356 1554.097493 1757.834207 0 
1685.171387 1733.8538 1553.770244 1757.843042 0 
1698.053013 1725.918445 1553.830989 1758.088376 0 
1698.246871 1722.152939 1554.042101 1758.183991 0 
1695.750507 1717.181114 1554.223327 1758.143726 0 
1694.775603 1712.146553 1554.023524 1757.838778 0 
1693.797134 1708.208982 1553.865782 1758.12787 2 
1870.814376 1632.780612 1553.958043 1758.241289 0 
1732.868968 1680.805535 1553.825496 1757.790355 1 
1703.909335 1686.84574 1553.883397 1758.212348 0 
1691.014185 1687.964386 1554.050724 1758.011056 0 
1649.867325 1704.842825 1553.945047 1757.867832 0 
1639.773939 1706.918374 1553.761558 1757.799543 0 
1630.814927 1709.035082 1553.888321 1757.862061 0 
1628.994064 1707.004103 1554.239932 1758.058439 0 
1628.034715 1704.947974 1554.049729 1758.153682 0 
1628.00351 1701.125225 1554.194037 1758.162845 0 
1627.220964 1697.827434 1554.125193 1757.985149 0 
1626.04182 1694.925917 1554.246205 1758.159145 0 
1702.018742 1618.941252 1553.776977 1758.042681 0 
1691.109627 1620.788536 1554.092223 1758.174554 0 
1685.073617 1619.230544 1553.786615 1757.817681 0 
1680.984647 1594.776547 1554.12612 1757.769362 0 
1678.974521 1585.925849 1554.173044 1758.228031 0 
1623.801074 1654.117082 1554.140876 1757.772038 0 
1619.194516 1655.016069 1554.007187 1757.986336 0 
1613.191986 1657.003392 1553.895481 1757.960728 2 
1611.194645 1652.922459 1553.753409 1758.054271 0 
1609.960994 1649.095633 1553.978825 1757.784612 0 
1681.076177 1487.01544 1553.852293 1757.810824 0 
1670.041987 1489.228413 1553.830187 1757.766508 0 
1662.904262 1483.753231 1554.244539 1757.955336 2 
1653.120313 1483.135415 1553.977374 1758.064829 0 
1644.901484 1479.234561 1553.801165 1757.843471 0 
1651.987953 1373.946646 1554.054199 1757.932597 2 
1611.119105 1500.057608 1554.236869 1757.830099 0 
1602.903241 1500.965693 1553.864711 1758.229418 0 
1596.231134 1493.967003 1553.790243 1758.02312 0 
1570.945416 1620.870429 1554.039628 1758.099678 0 
1566.87366 1621.034167 1553.805014 1758.243973 0 
1561.919582 1622.032388 1554.058802 1758.071067 0 
1558.016948 1623.109966 1554.164537 1757.754901 0 
1553.806612 1620.968737 1553.937498 1758.175717 0 
1513.776345 1338.924367 1553.755816 1757.929586 2 
1500.14006 1416.870526 1553.909004 1758.121194 0 
1515.087529 1557.949247 1553.894314 1757.782946 0 
1548.069676 1736.183942 1554.132624 1758.193337 2 
1547.968109 1738.187638 1554.18731 1758.137691 2 
1547.970026 1737.996111 1553.958758 1758.236974 2 
1546.856077 1737.873295 1554.241875 1757.91269 2 
1546.092032 1737.929373 1553.838406 1758.118377 2 
1546.10374 1737.844222 1553.797963 1757.9938 2 
1544.964748 1738.956967 1553.864994 1757.802277 0 
1544.156214 1739.009308 1553.835223 1757.97589 0 
1542.94325 1740.217847 1553.919227 1758.161359 0 
1542.155486 1739.856537 1554.049051 1757.875512 0 
1541.102648 1739.757808 1553.862486 1758.208725 0 
1539.881103 1739.854361 1553.871415 1758.223135 0 
1539.033735 1740.959821 1554.091512 1757.887475 0 
1538.054043 1741.139475 1554.131275 1757.768791 0 
1536.846442 1741.246269 1553.821068 1757.752656 0 
1536.005578 1741.906292 1553.978547 1758.198828 0 
1534.874139 1742.147774 1554.110187 1757.779625 0 
1533.75431 1741.909238 1553.905137 1758.106958 0 
1532.917046 1742.017623 1554.065683 1758.048149 0 
1532.121984 1743.187098 1554.021284 1757.905718 0 
1530.896919 1742.862796 1554.043193 1758.200962 0 
1529.752271 1742.924468 1554.219753 1757.848713 0 
1527.920738 1743.790822 1553.851369 1758.176315 0 
1525.947113 1744.079916 1554.125143 1758.071253 0 
1524.977689 1744.98533 1554.100877 1757.981999 0 
1524.144568 1744.756014 1553.838957 1757.811614 0 
1521.023636 1746.154641 1554.109764 1757.89562 0 
1537.091739 1752.881048 1554.051338 1758.238658 2 
1536.993844 1752.844531 1554.189621 1757.996115 2 
1537.019 1754.159374 1554.094828 1758.189737 2 
1537.200196 1754.196197 1554.116053 1757.897309 2 
1537.026112 1754.991196 1554.218562 1757.753801 2 
1537.226526 1755.069439 1553.985801 1758.121094 2 
1537.075453 1756.074758 1554.182709 1757.84909 0 
1536.979399 1757.042472 1553.99471 1757.821138 0 
1538.17352 1757.796048 1553.809797 1757.917364 0 
4378.89058 2280.249417 4439.163479 2279.159579 0 
4379.158791 2281.008307 4439.099316 2279.108987 0 
4379.954504 2282.965369 4438.756296 2279.230616 0 
4381.206565 2285.224858 4439.234417 2279.183091 0 
4381.044297 2286.970218 4439.054185 2278.86975 0 
4381.794977 2287.986894 4438.96884 2279.024376 0 
4381.779366 2290.21355 4439.095514 2279.202886 0 
4382.759598 2292.155311 4438.87025 2278.900177 0 
4384.154728 2293.783729 4438.809757 2279.06352 0 
4384.042036 2295.159073 4438.922507 2279.24654 0 
4384.874442 2296.928803 4439.227156 2278.831007 0 
4384.903661 2299.211573 4438.764098 2279.197959 0 
4385.931792 2300.068283 4438.817709 2278.976768 0 
4385.805177 2302.036549 4438.751144 2278.834542 0 
4387.000099 2304.096658 4438.787428 2279.009697 0 
4388.001969 2305.907678 4439.159874 2278.906697 0 
4387.941408 2307.219631 4439.220217 2279.233444 0 
4389.128704 2308.892724 4439.229984 2278.753146 0 
4389.071527 2311.20714 4438.834153 2279.225189 0 
4390.168713 2311.848251 4439.173148 2278.850505 0 
4390.166533 2314.240857 4439.077273 2279.22171 0 
4391.027406 2316.078417 4438.806253 2278.777505 0 
4391.925075 2317.843681 4439.037202 2279.177044 0 
4392.001359 2319.947077 4438.833741 2279.192767 0 
4392.916708 2321.803958 4439.176211 2278.795412 0 
4393.946682 2324.156195 4438.798558 2278.768209 0 
4394.113334 2325.882711 4439.243398 2279.032047 0 
4394.980962 2328.166546 4439.132552 2278.897495 0 
4396.157403 2329.959825 4438.869205 2278.934809 0 
4396.788241 2332.925458 4438.962314 2278.963316 2 
4398.019138 2335.249517 4438.89036 2278.770498 2 
4346.946594 2413.974101 4439.213265 2279.113302 0 
4349.02806 2420.139476 4439.158714 2279.224742 0 
4354.04567 2422.207272 4439.242951 2278.909005 2 
4355.839983 2431.236349 4439.191052 2279.070944 0 
4358.152895 2438.073604 4439.218439 2279.060298 0 
4361.783428 2443.837644 4439.245107 2278.82167 2 
4335.013102 2519.957421 4439.034986 2278.78224 0 
4346.956938 2513.175346 4438.802738 2279.153532 0 
4356.899447 2507.766003 4439.016834 2279.177507 0 
4366.155478 2502.925548 4439.152248 2278.951148 0 
4374.882819 2498.1452 4439.110153 2278.972802 0 
4384.131549 2493.051205 4438.793746 2279.034444 0 
4391.874809 2488.762185 4438.844742 2278.908237 0 
4399.849829 2484.839849 4438.979907 2279.112931 0 
4406.04727 2482.764893 4439.145171 2278.754208 2 
4414.190239 2475.197909 4439.15774 2278.839686 0 
4427.213911 2466.924574 4438.767193 2279.11939 0 
4433.100122 2464.169442 4438.820538 2279.232941 0 
4439.064641 2461.180691 4438.955743 2278.94619 0 
4443.981896 2457.999489 4439.230634 2279.106705 0 
4450.011674 2454.825376 4438.764943 2279.111503 0 
4454.915225 2450.99485 4438.974434 2279.212494 2 
4461.009743 2459.869605 4439.216703 2278.949982 0 
4470.817513 2484.124443 4439.039668 2278.781425 0 
4476.799017 2481.056861 4439.150814 2279.149139 0 
4482.976303 2479.221352 4439.132081 2278.790944 0 
4446.152043 2306.837824 4438.987134 2278.883939 2 
4446.087313 2306.967768 4439.240644 2278.848987 2 
4447.043144 2306.755587 4439.21049 2279.208369 2 
4448.000437 2306.934924 4439.170863 2278.760179 2 
4449.054529 2307.137566 4438.960161 2279.122042 0 
4450.012009 2306.249829 4439.153467 2279.061027 0 
4451.056691 2306.054281 4438.960166 2278.782993 0 
4452.025634 2304.842247 4438.823937 2278.927677 0 
4452.930071 2305.061071 4439.061616 2278.767384 0 
4453.77884 2305.052261 4438.866371 2279.071984 0 
4455.057848 2303.826861 4439.030352 2278.808284 0 
4456.011785 2302.951216 4438.818464 2278.816314 2 
4455.838781 2302.028625 4439.188356 2279.10079 2 
4457.028454 2302.091823 4438.911817 2278.835145 2 
4457.896105 2302.121983 4438.868138 2279.171738 2 
4900.21423 2770.942076 4438.849415 2278.8943 0 
4919.753147 2761.161032 4438.911684 2278.781987 0 
4960.963292 2740.028055 4439.103971 2278.77114 0 
4524.104916 2349.884323 4438.829424 2278.866702 0 
4520.085538 2341.897888 4438.933015 2279.17432 0 
4517.176513 2335.871371 4439.02511 2278.954968 0 
4515.213195 2332.186927 4439.040113 2278.859299 0 
4517.05891 2330.158251 4438.781038 2279.02314 2 
4520.850327 2328.880453 4439.16744 2278.853474 0 
4523.791484 2326.829125 4438.885461 2279.004776 0 
4525.10718 2323.239431 4439.025917 2278.962096 0 
4522.873754 2319.105341 4439.078798 2279.209293 0 
4520.753229 2314.761813 4439.133612 2279.179742 0 
4518.883185 2310.908723 4438.88471 2278.846379 0 
4517.84565 2308.174823 4438.955679 2279.15456 0 
4516.083074 2304.986716 4438.9277 2279.1834 0 
4514.117169 2300.84514 4438.786874 2279.158653 0 
4512.924265 2297.922335 4438.91343 2278.781445 0 
4511.911766 2296.189346 4438.993541 2279.03552 0 
4510.044687 2292.822339 4438.994813 2279.047916 0 
4508.834152 2290.878425 4438.977659 2278.967337 0 
4508.037148 2288.112369 4439.063716 2279.132798 0 
4507.037192 2285.769395 4439.037358 2278.870265 0 
4506.006111 2284.215058 4438.803666 2278.87328 2 
4508.810199 2281.84054 4438.781933 2278.984464 0 
4519.012875 2276.945363 4439.015909 2279.174641 0 
4525.884709 2273.75945 4438.960162 2279.179396 0 
4531.83179 2271.204975 4438.977312 2278.915942 0 
4536.8334 2267.204971 4439.133279 2279.120548 2 
4625.067339 2249.946995 4439.003346 2278.854531 1 
4623.96639 2243.790705 4438.974796 2279.222501 1 
4614.755763 2240.028462 4438.845781 2278.815962 1 
4614.119003 2234.877714 4439.050426 2278.881878 1 
4750.073077 2188.816335 4438.806519 2279.207786 0 
4744.825786 2180.016681 4439.137182 2278.907575 0 
4739.971656 2170.864494 4439.073517 2279.055056 0 
4774.819464 2146.956796 4438.925604 2279.136804 2 
4702.153792 2166.17895 4439.241335 2278.870182 0 
4693.219655 2149.966132 4438.842683 2279.225419 0 
4689.244594 2141.938465 4438.791381 2279.113596 0 
4684.066179 2134.091807 4439.245474 2278.889256 0 
4693.158142 2082.801993 4438.847042 2279.233928 0 
4513.068674 2213.234224 4438.891503 2278.79033 2 
4506.848718 2215.21502 4439.095386 2278.918182 0 
4499.921817 2217.77099 4438.804986 2278.825608 0 
4494.19994 2219.796321 4438.94579 2279.169595 0 
4489.012453 2222.038473 4439.145014 2279.007047 0 
4484.226938 2224.186394 4438.870643 2279.043117 0 
4480.028201 2225.866117 4439.182374 2278.936343 0 
4475.918111 2226.779416 4438.920271 2279.236785 0 
4472.76364 2229.061774 4438.777115 2278.862358 0 
4470.026795 2230.1225 4439.03054 2279.198611 0 
4468.14349 2231.085527 4438.77422 2279.09343 0 
4466.131848 2229.97001 4439.013025 2278.894301 0 
4464.758483 2227.908039 4439.151348 2279.235421 0 
4463.844433 2225.771991 4439.028539 2279.122635 0 
4462.888108 2222.960912 4438.808978 2279.056219 0 
4461.990328 2220.979249 4439.043004 2279.003968 0 
4460.791023 2218.070119 4439.116326 2279.067818 0 
4459.942619 2214.896866 4439.01643 2278.836109 0 
4458.232393 2211.040649 4439.179539 2279.114241 0 
4456.760659 2207.942564 4438.758542 2278.769142 0 
4456.100603 2204.15989 4438.754563 2279.195036 0 
4454.181881 2201.033102 4439.067671 2278.819989 2 
4455.244014 2174.126649 4439.126208 2278.984342 0 
4451.855898 2175.919212 4439.23831 2278.896921 0 
4448.239331 2178.104637 4439.21474 2278.93195 0 
4444.751503 2178.981169 4439.01806 2279.233896 0 
4441.771818 2179.947599 4439.098137 2278.782477 0 
4439.140163 2182.106679 4438.801619 2278.990765 0 
4436.016569 2182.806183 4438.935802 2278.948449 0 
4433.089285 2184.753472 4439.018438 2279.083299 2 
4430.130121 2182.894647 4438.817641 2279.236019 0 
4425.063859 2172.805951 4438.88294 2279.05319 0 
4420.160588 2162.84768 4439.23514 2279.162091 2 
4412.078849 2140.0032 4439.145987 2279.100668 0 
4408.200798 2142.994124 4439.133145 2279.090961 2 
4399.850803 2128.184765 4438.831727 2279.117372 0 
4392.240947 2119.017528 4438.815822 2279.080232 2 
4387.021001 2121.08426 4438.913531 2278.901122 0 
4382.228907 2122.981172 4438.887141 2279.042765 0 
4174.037123 1609.020081 4438.845955 2278.947711 0 
4346.117761 2065.831096 4438.859802 2278.946611 0 
4339.084296 2067.75579 4438.797279 2279.035094 0 
4389.999914 2185.180424 4438.876055 2279.100717 2 
4388.115188 2185.957782 4438.96809 2279.106136 2 
4384.22531 2188.033911 4438.936368 2278.99631 0 
4381.868171 2189.099899 4439.147432 2278.847078 2 
4320.831071 2106.784573 4439.139843 2279.118194 0 
4328.054654 2128.235799 4438.815905 2278.922415 0 
4333.816895 2144.925708 4439.119026 2279.15119 0 
4338.931497 2160.166305 4438.936284 2279.181411 0 
4342.096728 2170.062339 4439.032129 2278.961917 0 
4348.770121 2189.750218 4438.818053 2279.245431 0 
4352.03413 2199.004421 4438.991741 2279.152301 0 
4353.854319 2204.889173 4439.249379 2278.93539 0 
4355.923746 2211.139222 4438.803584 2279.2284 0 
4358.125021 2216.869489 4438.900815 2279.191915 0 
4360.045197 2222.769841 4439.093106 2279.226694 0 
4362.186146 2227.77939 4439.158106 2279.032874 0 
4363.091729 2231.940235 4439.244791 2279.11185 0 
4363.940453 2235.812843 4439.10728 2279.224583 0 
4366.067264 2239.849021 4439.126883 2279.171583 0 
4366.988194 2243.126262 4438.856973 2279.16194 0 
4368.015484 2245.910557 4439.140339 2278.890505 0 
4369.030047 2249.791154 4438.832421 2278.825244 0 
4369.810995 2252.175527 4438.801938 2279.24714 0 
4371.204916 2255.210044 4439.030014 2279.046645 0 
4371.900278 2258.024805 4438.908495 2279.090731 0 
4373.087648 2260.765775 4439.065314 2278.904912 0 
4372.864797 2262.942197 4438.826495 2279.102991 0 
4373.818459 2264.933468 4439.01493 2279.083944 0 
4375.094025 2266.905269 4439.224449 2278.874072 0 
4375.946423 2269.80687 4438.949315 2279.007418 0 
4376.232397 2272.001253 4439.004559 2279.187313 0 
4377.961297 2275.784573 4438.983958 2279.111575 0 
4378.059378 2278.142454 4438.952306 2278.897025 0 
871.158229 3290.76762 905.0519371 3289.773026 0 
869.9598173 3292.128432 905.1260163 3290.028277 0 
869.8118995 3292.890947 904.8622206 3290.155925 0 
880.0462158 3292.83667 904.7799961 3290.242639 1 
868.8935402 3294.979311 905.0000571 3289.875937 0 
868.2305645 3295.754616 904.8132501 3289.941862 2 
878.7891885 3296.047208 904.8034368 3290.098566 1 
878.939662 3296.005743 905.2455915 3289.847891 1 
874.0233634 3298.047529 904.8709167 3290.233181 1 
859.9259603 3303.246933 905.0114574 3289.98786 2 
851.8878795 3307.123678 904.8937844 3290.184095 1 
857.2103478 3309.923781 905.1767344 3289.853888 1 
867.1530919 3306.926792 904.979825 3290.133656 1 
855.9314072 3313.043075 904.8255179 3289.970596 1 
839.8402835 3322.878955 904.8191617 3290.029945 1 
857.1346979 3315.814753 905.1278364 3289.908061 1 
866.1122818 3313.248753 904.8912419 3289.788242 1 
850.2456861 3328.152699 905.026102 3289.883566 1 
839.0263772 3338.169886 904.817661 3289.986725 1 
864.843667 3321.244395 905.090613 3290.246759 1 
872.9211868 3316.820438 905.1304152 3290.102594 1 
757.113513 3421.205933 904.8231896 3290.203797 0 
765.8348879 3420.892351 904.983742 3290.219586 0 
775.9571045 3419.861578 904.877647 3289.819386 0 
784.8603315 3419.018889 904.8576286 3289.856018 2 
864.9215882 3336.133731 904.9895832 3290.197965 1 
885.053617 3316.057244 904.9346904 3290.147284 1 
881.0516395 3322.775303 905.1440428 3290.222826 1 
598.8457414 3773.024458 905.0754203 3290.209254 0 
790.9803912 3484.14861 905.163051 3290.065279 1 
705.7909613 3652.896793 905.0348649 3289.998066 2 
799.0083713 3497.162512 905.0674522 3290.118703 1 
827.9314008 3455.175081 905.2247204 3290.102989 1 
828.0588113 3466.964304 905.0509543 3289.862428 1 
827.7715477 3484.235645 904.7597123 3290.073187 1 
827.760948 3505.153755 905.0460135 3289.856689 1 
823.9282132 3540.871434 904.8159439 3290.158604 0 
833.7700438 3534.228995 904.9738836 3289.811005 2 
839.8757878 3542.758748 905.0590708 3290.134159 0 
857.1712603 3501.876523 905.0028619 3289.852661 1 
851.8016037 3563.977582 905.2056499 3290.110415 0 
859.1918859 3576.006604 905.2228434 3290.213434 0 
880.9922488 3481.232556 905.0366208 3290.003197 0 
887.1363108 3476.832634 905.1098863 3289.814524 2 
904.9540682 3472.17583 905.2231285 3289.974112 0 
923.1548251 3489.947012 905.035117 3289.780613 2 
949.9557605 3647.844188 905.1647721 3289.877021 2 
960.9707108 3648.917634 904.9796818 3290.022315 0 
995.1452163 3641.935332 904.8827296 3290.087102 0 
1005.191936 3635.855573 905.0505358 3289.934185 0 
1014.838129 3630.837157 905.1873816 3290.224439 0 
933.919791 3358.047268 904.7889635 3290.123859 0 
934.9730982 3355.762092 904.8479712 3289.877923 0 
936.9591041 3353.133088 904.9085363 3290.164865 2 
938.227276 3349.823308 904.7918853 3289.947987 2 
938.9909423 3350.021567 905.2203014 3289.886159 2 
943.2068989 3350.853031 905.2232608 3290.148835 0 
944.9586039 3351.023797 904.8330196 3290.046733 0 
947.1109533 3349.770401 905.021172 3289.780744 2 
951.0676692 3351.060135 905.1546034 3289.790767 2 
956.0722274 3351.752575 904.9186908 3289.781332 0 
952.1356628 3344.077227 905.1961961 3290.112939 0 
951.1505354 3339.238081 904.8109257 3289.891478 2 
953.0096486 3338.781227 905.0276364 3289.966548 2 
954.8842581 3338.000897 904.8653824 3290.092862 0 
956.7746939 3336.948402 904.8895946 3290.135647 0 
960.9688033 3335.160767 905.1663914 3289.786473 0 
963.970902 3334.070995 904.8272399 3289.793129 0 
965.0735693 3331.995931 904.824461 3289.959232 2 
968.8231578 3331.770657 904.8221709 3290.223693 2 
973.7587385 3331.883097 904.8651709 3290.018387 0 
979.9143237 3329.142807 905.2349345 3290.048582 0 
982.8937046 3327.850317 904.8914439 3289.918398 0 
990.0487189 3324.031039 904.8040456 3289.767522 0 
992.9418051 3323.220437 904.8039947 3290.162707 0 
997.0414317 3320.881235 905.2058365 3289.865001 0 
999.1271653 3317.780297 905.0742331 3290.200323 2 
1133.800955 3349.146404 905.1740163 3289.809693 0 
1124.779501 3331.789187 905.07808 3289.943824 0 
1121.181995 3325.063015 905.2424063 3289.825699 2 
1131.163331 3318.88385 904.9940975 3289.96205 0 
1142.164889 3313.048143 904.9795725 3289.856694 0 
1359.01858 3319.033567 904.7694009 3289.810012 0 
1252.164802 3301.225237 904.9250128 3290.041967 0 
1101.755535 3290.249246 904.9922903 3289.806489 0 
1094.14565 3284.916307 904.8661824 3290.175151 0 
1090.955494 3279.194262 904.8689751 3289.887488 0 
1088.007277 3272.861381 904.9631874 3289.920608 2 
1088.995232 3267.207285 905.1326587 3289.91012 0 
1086.005428 3261.862231 905.0168141 3289.774008 0 
1083.145798 3256.036215 904.8340198 3290.0606 0 
1080.011452 3251.009033 904.8525675 3290.016987 2 
1092.008278 3243.094858 905.0734767 3289.903928 0 
1282.761164 3181.189659 904.829079 3289.966658 0 
1063.133921 3238.948054 905.1041464 3289.891198 2 
1060.059435 3233.817334 905.0618068 3289.804667 0 
1057.774619 3229.944466 904.9647873 3290.030047 0 
1056.056697 3225.231601 905.0540548 3289.952495 2 
1059.017816 3218.138075 904.7630956 3289.779269 0 
1056.897107 3212.865663 905.0462562 3290.155386 0 
1054.210521 3207.869733 904.809314 3290.221685 0 
1051.809392 3203.888393 904.9383433 3290.193313 0 
1069.086447 3185.79249 904.8345119 3289.895883 0 
1062.859824 3175.146319 904.9505496 3289.884442 0 
1099.840784 3139.165337 905.1644891 3290.147481 2 
1098.146938 3129.968544 904.8499762 3289.914755 0 
1142.856619 3080.863072 904.9440235 3290.003726 0 
1196.978735 2999.24028 904.9091112 3289.939256 0 
1463.860013 2656.968425 904.9109408 3289.919405 0 
1353.106818 2749.099284 904.8627181 3289.943265 0 
1336.141774 2733.94723 905.0891479 3289.751597 0 
1288.843549 2760.789697 904.8860397 3289.934333 0 
1243.205034 2791.800529 904.8318137 3290.101973 0 
1222.019073 2789.93179 904.7667272 3290.125691 0 
1140.044862 2862.960751 904.8794168 3289.773596 2 
1087.95103 2930.038528 904.9628519 3290.061043 0 
993.7569532 3084.123793 905.2304476 3290.113771 2 
983.9730768 3089.843166 904.8070368 3289.864851 2 
975.0403955 3076.146185 904.8664479 3290.133944 0 
970.1858822 3067.002488 904.8182769 3290.140916 0 
965.0530163 3056.900091 904.992889 3289.822089 0 
959.0818804 3046.009616 905.1977801 3289.876742 0 
919.220367 3213.827197 904.9003383 3289.921397 0 
917.1157248 3214.11319 905.2324404 3290.122678 0 
913.9869829 3213.212888 904.9864495 3290.21006 0 
911.8060536 3213.043486 904.8249102 3290.096449 0 
906.9396709 3212.941358 904.9803932 3289.875553 0 
905.1938456 3214.04867 904.7664696 3289.996862 2 
902.1987607 3225.009359 905.0689508 3290.030641 2 
899.7689749 3225.016731 905.157383 3290.239342 2 
898.0939277 3223.807721 904.9107393 3289.959653 0 
896.1709115 3223.89318 904.8323306 3289.907894 0 
893.8560677 3224.06878 904.8679541 3289.912121 0 
891.8622663 3223.942864 904.7585704 3290.051937 0 
890.1342223 3223.988964 905.1774903 3290.078068 0 
887.7876337 3224.19396 904.8249299 3290.236394 0 
882.9533185 3223.143881 905.0170355 3289.972293 0 
879.9106116 3222.924419 904.9616352 3289.754539 0 
875.9821398 3223.122375 904.9641919 3289.903051 0 
871.7655543 3220.046523 905.0609457 3289.871622 0 
857.8653026 3206.1789 905.0337432 3289.977569 0 
855.8717641 3208.042314 904.7795061 3289.755986 0 
853.7812772 3211.206996 905.0840544 3289.818911 0 
852.1509563 3214.158984 904.8053054 3289.854275 0 
850.052865 3216.072341 905.0765681 3290.213477 0 
849.2467594 3217.788203 905.2180159 3289.978899 0 
847.1605779 3219.932208 905.1319505 3290.176132 2 
841.2287303 3217.942896 904.7977541 3289.844033 0 
829.8717961 3210.081497 905.0716018 3289.99356 0 
831.873811 3218.101108 904.9995465 3289.905088 0 
830.0581042 3220.833601 904.9739992 3289.959061 0 
829.2425851 3223.029305 905.0633352 3290.04545 0 
826.8516454 3225.889903 905.0089266 3289.848405 0 
824.9281066 3228.976943 905.077304 3289.838684 0 
878.1591503 3271.959254 904.7648166 3290.137881 2 
878.1521508 3272.812571 905.2319135 3289.773947 2 
878.1440681 3274.053515 905.0175069 3289.767879 2 
877.9046232 3273.767053 904.9229673 3290.212727 2 
874.8506543 3276.146967 904.9217879 3289.843239 0 
874.9262711 3277.235123 905.1386894 3290.027916 0 
873.8750264 3278.897616 905.1263213 3290.053133 2 
874.1245585 3279.953625 905.1418174 3290.033709 2 
874.1628798 3281.156634 904.9215894 3290.065031 2 
874.2192047 3281.903503 905.0889773 3290.113273 2 
876.2070183 3282.856484 905.1311519 3289.861641 2 
875.8735377 3283.804119 904.8243688 3289.974192 2 
876.2010857 3284.996157 905.0674312 3289.877357 2 
873.9812799 3285.956121 905.1552733 3290.106306 0 
874.1037366 3287.031595 904.9094392 3289.978295 0 
873.2352198 3287.801257 904.7620038 3290.1481 0 
872.2078906 3288.933593 904.9631301 3290.177095 0 
3545.087096 2858.802107 3696.040368 2858.044115 0 
3547.908592 2862.92152 3696.155756 2858.032129 0 
3549.975639 2868.230125 3695.756321 2857.926725 0 
3546.976282 2873.073753 3696.054082 2858.207561 0 
3535.779873 2878.959355 3696.063868 2858.13361 0 
3523.240949 2886.223307 3695.861905 2858.226169 0 
3561.774563 2883.873909 3696.124269 2858.232454 2 
3565.057502 2891.837399 3696.159549 2857.894598 0 
3566.889506 2895.949917 3696.188713 2858.048098 0 
3569.121437 2900.094469 3695.830228 2857.847076 0 
3571.074593 2902.836549 3696.023801 2857.800875 2 
3570.160301 2908.827883 3695.758436 2858.190174 0 
3571.037237 2912.072304 3696.073784 2858.028187 0 
3574.045611 2916.185689 3696.004356 2858.070174 0 
3575.809597 2919.878625 3696.052628 2858.117099 0 
3555.966024 2934.962177 3695.761697 2858.105531 2 
3365.162095 3054.20041 3695.903629 2858.033532 2 
3580.044878 2931.983856 3696.130608 2857.869472 2 
3581.070405 2935.904409 3695.920346 2857.980706 0 
3582.982292 2939.928783 3695.920881 2857.769529 0 
3584.751086 2944.244665 3696.047716 2858.046697 0 
3589.180354 2951.802072 3695.866871 2858.239951 0 
3591.930697 2956.169499 3696.107051 2858.146721 0 
3595.881677 2964.118748 3696.002252 2857.793771 0 
3579.069158 2992.155881 3696.077303 2857.864036 2 
3591.889737 2984.957911 3695.983508 2858.210142 0 
3600.112321 2981.153854 3695.940849 2857.844612 2 
3601.832637 2987.11173 3695.864142 2857.833723 0 
3613.106395 3009.161858 3696.13042 2858.036748 2 
3517.21393 3211.247291 3696.0267 2857.894627 0 
3531.166791 3239.88375 3695.791349 2857.798467 2 
3562.752498 3194.043601 3695.842239 2858.071656 2 
3590.949481 3181.169542 3696.185692 2858.089218 2 
3596.877453 3196.919199 3696.049361 2858.239774 0 
3604.823053 3211.240209 3695.834386 2857.90569 2 
3609.101939 3245.948528 3695.989413 2857.958333 0 
3620.860385 3253.869833 3696.245082 2857.824315 2 
3611.867125 3388.021782 3695.968943 2857.783915 0 
3662.155532 3125.010291 3695.832382 2858.15803 2 
3670.803892 3119.924621 3695.979686 2858.003373 2 
3704.844163 3141.915378 3695.842592 2857.971616 0 
3728.084577 3375.141952 3695.96139 2858.15763 0 
3697.132161 2871.045776 3695.813321 2857.9841 2 
3697.244304 2871.052734 3696.192433 2857.854689 2 
3697.172567 2871.187515 3695.929005 2857.789692 2 
3697.959297 2871.147947 3695.823607 2857.864829 2 
3697.908238 2870.905989 3695.772859 2857.96213 2 
3699.08061 2870.002544 3696.215503 2858.174773 0 
3700.167922 2869.808095 3695.89639 2858.002499 0 
3701.200047 2869.10778 3695.910129 2858.082208 0 
3701.903556 2868.97345 3695.816308 2857.897861 0 
3702.776184 2867.758742 3696.00255 2858.198751 0 
3704.196257 2868.181555 3696.238443 2857.905553 0 
3705.079502 2866.81205 3696.020382 2858.23774 0 
3705.968039 2867.043241 3695.949871 2857.79865 0 
3706.795785 2865.915374 3696.223423 2858.213707 0 
3707.973469 2865.869813 3695.966206 2857.923516 0 
3709.227593 2865.126335 3695.755725 2857.881149 0 
3710.849785 2863.822033 3696.02901 2857.875969 0 
3711.830775 2862.78156 3695.82472 2857.777031 0 
3713.213114 2862.813163 3695.932585 2858.042616 0 
3713.875213 2862.202967 3696.030357 2858.093252 0 
3715.996207 2861.230227 3696.141902 2858.041992 0 
3716.895601 2860.115325 3696.005699 2858.11907 2 
3717.235137 2860.221905 3695.792586 2858.21273 2 
3717.09824 2858.798311 3695.843879 2858.198025 2 
3793.870344 2858.122889 3695.823994 2857.951119 0 
3793.154449 2854.898715 3695.97815 2858.117563 0 
3790.961878 2852.160735 3695.91018 2858.087091 0 
3789.113701 2850.190536 3695.930343 2857.859909 2 
3794.170763 2845.822245 3696.151901 2857.816365 0 
3800.18757 2841.9076 3696.185435 2858.172708 2 
4120.879504 2777.228021 3696.135438 2858.227744 0 
4120.776332 2764.229317 3696.175769 2857.896676 0 
3785.102206 2835.249764 3696.097795 2858.006655 2 
3783.898479 2832.825945 3695.874219 2858.110357 0 
3782.23668 2830.034398 3695.947448 2858.100381 0 
3780.974934 2828.127791 3696.210289 2857.895698 0 
3780.200037 2825.11219 3695.962063 2858.137607 2 
3785.76979 2819.897497 3696.060314 2857.899294 2 
3803.875519 2806.945752 3695.877038 2857.901851 2 
3801.925069 2804.802808 3696.048528 2857.777276 0 
3800.802571 2800.896323 3696.033931 2857.95105 0 
3808.972268 2792.15815 3695.811407 2857.958947 0 
3929.942548 2710.008855 3695.809328 2858.167482 0 
3718.886646 2840.769618 3695.81318 2857.836683 0 
3715.131808 2843.025243 3696.22429 2858.151597 0 
3710.17274 2846.034604 3695.800891 2857.798259 0 
3706.230356 2847.927929 3695.950111 2857.905426 0 
3703.980737 2849.248638 3695.932702 2858.033308 0 
3702.894961 2849.216633 3696.234358 2858.117228 0 
3702.124782 2849.795765 3695.826176 2857.81733 0 
3701.05462 2849.885504 3696.234813 2858.191266 0 
3697.905121 2851.797993 3695.777949 2857.786929 0 
3697.073236 2851.752239 3696.188526 2857.995976 0 
3696.036843 2853.239417 3696.044236 2858.017199 2 
3695.917347 2853.244346 3696.172625 2858.148083 2 
3696.242984 2852.855326 3695.931391 2857.887945 2 
3695.821959 2852.91575 3695.755173 2858.196741 2 
3695.961515 2852.831349 3695.764071 2857.766134 2 
3695.966853 2853.248884 3696.207401 2858.121974 2 
3695.796877 2853.235349 3696.158903 2858.120113 2 
3695.237588 2853.09743 3695.866089 2858.024431 2 
3695.086847 2853.160325 3695.79163 2857.754194 2 
3695.154671 2853.214255 3696.152277 2858.147655 2 
3694.819581 2852.833668 3695.7856 2857.89154 2 
3694.999418 2852.790773 3695.838281 2858.210932 2 
3694.872122 2852.852352 3696.227067 2858.088975 2 
3693.851236 2853.184467 3695.960949 2857.898113 2 
3694.169817 2852.869852 3695.768226 2858.157405 2 
3694.217282 2852.884315 3695.931836 2858.054129 2 
3693.79464 2852.973465 3696.058322 2858.19931 2 
3693.93772 2852.960599 3696.096965 2858.007301 2 
3694.044268 2853.132565 3696.14884 2857.793685 2 
3692.173338 2849.237121 3695.754618 2857.79546 0 
3690.839473 2848.231685 3696.134434 2857.94071 0 
3671.166152 2808.845383 3696.088823 2858.085969 0 
3668.965235 2810.107049 3695.993374 2857.932517 0 
3666.241364 2812.175209 3696.236645 2857.786004 0 
3663.898675 2813.044968 3696.235315 2858.086395 2 
3662.755567 2813.08228 3695.843696 2858.049835 2 
3605.964845 2742.242536 3696.09352 2857.888183 0 
3601.229657 2744.098138 3695.933642 2857.81913 0 
3284.079823 2390.818077 3696.00984 2857.995975 2 
3326.91346 2464.848663 3695.831944 2858.128695 0 
3362.205712 2525.075318 3695.811211 2858.197076 2 
3375.000527 2555.797857 3696.23308 2858.149202 0 
3399.092824 2597.218395 3695.985597 2858.098391 2 
3388.050675 2603.079292 3695.898226 2857.765519 0 
3375.071828 2609.241746 3695.903702 2858.051485 0 
3444.089884 2676.087344 3696.120616 2857.919707 2 
3446.155421 2688.880456 3696.165682 2857.818881 0 
3463.979119 2711.247626 3696.197576 2857.934831 0 
3471.072943 2725.758787 3695.881907 2857.82347 0 
3477.806644 2738.864988 3696.222672 2858.149468 2 
3470.833383 2742.958269 3695.997859 2858.134057 0 
3481.787561 2758.146085 3696.149577 2858.109389 0 
3495.137832 2771.803279 3695.910874 2857.977716 0 
3494.140623 2777.78149 3696.147423 2858.046044 2 
3496.911945 2787.063106 3696.114925 2858.141064 0 
3513.060732 2799.062501 3695.825895 2857.883675 0 
3523.071288 2807.957802 3695.957146 2858.127931 2 
3526.072789 2814.929818 3696.027399 2858.156172 2 
3527.138086 2820.775258 3696.040229 2858.175647 0 
3529.171343 2826.939806 3696.035036 2858.059175 0 
3520.993084 2831.19591 3695.786891 2857.883707 0 
3514.2274 2835.184315 3696.179752 2857.889345 0 
3534.997421 2843.044677 3695.780409 2857.808152 2 
3536.857177 2847.856304 3695.941827 2858.178465 0 
3542.064105 2853.148973 3696.056396 2857.886894 0 
3513.828791 3535.833795 4150.793066 3515.216877 0 
3523.859053 3556.083295 4151.142524 3514.780397 2 
3444.773101 3582.927561 4151.089572 3515.016185 0 
3330.873471 3620.126463 4151.149893 3514.850871 2 
3454.060778 3627.079644 4150.990216 3514.808199 1 
2107.874321 3908.020625 4150.866351 3514.981498 1 
2038.126929 3991.058178 4150.909963 3514.941034 1 
2026.957151 4064.216359 4151.077928 3515.035942 1 
1619.800154 4255.120994 4151.002819 3514.909207 2 
3343.954289 3778.895343 4150.939604 3514.97739 1 
3370.072904 3797.779175 4151.243575 3515.196375 1 
3552.155639 3754.143468 4150.797246 3514.966417 1 
3516.973112 3790.037462 4151.024615 3515.097433 1 
2951.808088 4082.140966 4150.828931 3515.185016 0 
3048.949144 4078.988894 4150.87605 3515.156295 0 
1999.955253 4884.203979 4150.942236 3515.005407 0 
2515.074973 4630.195055 4151.164614 3514.779262 0 
2745.840398 4537.854218 4151.006653 3515.163302 0 
3243.883393 4221.000228 4151.109677 3514.789032 2 
3269.893696 4294.156923 4151.005449 3515.116808 0 
3292.944385 4321.780064 4150.964241 3515.002473 0 
3661.17103 4006.043172 4150.93749 3514.870173 0 
3671.782067 4026.06354 4150.776468 3514.98732 0 
3662.017519 4070.968705 4151.242728 3514.842492 0 
3696.913759 4064.157342 4150.871754 3515.004157 0 
3945.76156 3779.128407 4150.917459 3514.894954 1 
3958.878634 3778.777136 4150.933986 3515.02233 1 
3968.184059 3785.189434 4150.889138 3514.878444 1 
3981.219498 3784.103379 4151.130918 3515.140527 1 
3981.896552 3801.818407 4150.760701 3514.928618 1 
3993.131947 3803.787169 4151.165939 3514.899466 1 
4001.005874 3833.158666 4150.991957 3515.169633 1 
3954.066008 4015.113711 4150.92379 3515.077568 0 
3962.992118 4037.09125 4151.222522 3515.120752 0 
3974.118386 4059.906507 4150.893083 3515.052445 0 
3984.845941 4085.032221 4151.180889 3514.815439 0 
3947.8856 4307.061807 4151.205967 3515.032151 0 
3980.130214 4282.216667 4151.21077 3515.012161 0 
4132.753836 3704.126708 4151.161627 3515.00971 1 
4138.035374 3724.903584 4150.929343 3514.851382 1 
4144.767295 3699.103133 4151.178951 3515.009413 1 
4150.944383 3695.151472 4150.880166 3514.812769 1 
4155.80798 3692.023248 4151.115213 3514.903921 1 
4160.805469 3685.046103 4150.96936 3514.941069 1 
4167.857909 3696.925327 4151.22322 3515.238123 1 
4175.891995 3718.18399 4151.000284 3514.895831 1 
4180.060698 3703.911911 4151.155541 3514.846073 1 
4464.065495 4915.834884 4150.947455 3515.08279 1 
4490.188017 4679.876406 4150.842203 3514.882401 0 
4593.777878 4876.972369 4150.945169 3514.835858 0 
4583.245617 4606.810383 4150.989779 3514.801086 1 
4652.106485 4672.209139 4150.992155 3515.214395 1 
4513.884466 4285.965376 4151.202518 3515.026461 1 
4691.899366 4576.952802 4151.172292 3515.210064 2 
4553.114713 4247.077833 4150.806137 3514.930208 1 
4946.162717 4858.003592 4150.762997 3515.100735 1 
4791.129997 4522.8552 4151.233135 3515.157875 2 
4816.077569 4492.928304 4151.243733 3515.073186 0 
4469.988687 3927.983512 4151.124272 3514.845172 1 
4480.942651 3914.866428 4150.809567 3515.077117 1 
4245.081803 3621.762084 4150.853578 3515.231169 1 
4248.964887 3620.77587 4151.191233 3514.829599 1 
4669.103703 4033.247369 4151.009807 3515.01642 1 
4679.000961 4012.022804 4150.867154 3514.880958 1 
4351.128005 3642.850289 4150.788833 3514.955574 1 
4344.028594 3621.782566 4150.77876 3514.767281 1 
4346.016078 3615.153033 4150.862453 3515.208728 1 
4659.76946 3754.922019 4151.035845 3515.101263 1 
4347.934104 3601.139423 4151.082432 3515.14899 1 
4379.165293 3544.023664 4151.22859 3515.018995 1 
4384.021034 3537.988397 4150.785415 3514.771994 1 
4420.761201 3532.90257 4150.902952 3515.139206 1 
4371.002859 3521.941785 4150.84478 3514.781453 1 
4389.974352 3514.87354 4150.798733 3515.240429 1 
4351.776572 3508.911186 4151.199157 3514.796032 1 
4367.083205 3501.985003 4151.147296 3514.767309 1 
4375.874426 3493.979727 4151.166299 3514.789718 1 
4384.753392 3486.144889 4151.058714 3515.024425 1 
4351.883286 3484.094129 4151.04642 3514.894487 1 
4390.246698 3470.199372 4150.783692 3514.999557 1 
4504.891157 3424.878472 4151.03101 3515.115509 0 
4630.002012 3376.079743 4151.105938 3515.028584 0 
4401.240929 3434.055095 4151.074617 3515.074135 0 
4393.790098 3418.971912 4151.091444 3514.914524 0 
4400.201639 3408.007743 4150.954242 3515.205031 2 
4396.902633 3399.762956 4150.979456 3515.035918 0 
4393.107085 3391.775876 4151.180405 3515.103783 0 
4386.225248 3377.214098 4150.85334 3514.866405 0 
4381.84257 3369.134351 4151.231914 3515.094582 0 
4378.964094 3361.087852 4150.873166 3514.955024 0 
4374.892947 3353.197782 4150.779158 3514.933045 0 
4370.919694 3345.120602 4151.097569 3514.871334 0 
4358.878346 3319.801811 4150.826365 3515.030978 0 
4345.814767 3293.055821 4150.816897 3515.171851 0 
4342.081697 3285.247302 4151.025634 3515.056945 0 
4338.2114 3275.128975 4151.17335 3514.803969 0 
4333.013325 3265.155264 4151.148551 3515.227419 0 
4326.993116 3254.771717 4150.932443 3515.136063 2 
4332.219499 3229.961601 4150.819108 3514.889193 2 
4336.832204 3200.166677 4151.010527 3514.96055 0 
4279.218488 3281.086892 4151.241528 3514.783255 1 
4258.892714 3303.808425 4151.205106 3515.224411 1 
4253.805727 3295.980741 4151.031357 3514.767127 1 
4239.859716 3307.954707 4150.821096 3515.123041 1 
4240.859971 3286.219647 4151.10046 3515.103087 1 
4239.241363 3268.782904 4150.98915 3515.210862 1 
4407.994505 2725.058258 4150.850055 3515.076709 0 
4222.974935 3266.110583 4150.787259 3514.943424 1 
4316.947475 2771.778787 4150.976679 3515.090189 0 
4271.837212 2754.931785 4151.0646 3514.892939 0 
4291.162526 2413.845957 4150.910065 3514.772241 0 
4240.050664 2570.981161 4151.145282 3515.160635 0 
4209.950808 2572.995743 4151.013721 3514.942171 0 
4151.028646 2800.752871 4150.903033 3514.773151 0 
4096.061129 2632.003088 4151.09986 3514.786064 1 
3947.863671 1348.137119 4150.979488 3515.061146 1 
4018.165906 2456.206167 4150.901335 3514.753118 1 
3961.887952 2521.215935 4150.896056 3514.800478 2 
3929.811892 2525.056122 4150.822719 3515.112556 0 
3944.787283 2712.218001 4151.02319 3514.988091 2 
3916.963744 2707.786912 4151.180262 3515.242391 0 
3875.789783 2665.833295 4150.765542 3515.100912 0 
3833.086383 2631.115402 4151.136976 3515.200054 2 
3771.002521 2554.866464 4151.0112 3514.918427 0 
3814.822631 2801.162535 4150.921544 3514.960582 0 
3916.12847 3088.067601 4151.01106 3515.190362 0 
3903.873723 3097.083779 4151.052918 3514.911006 2 
3892.051781 3106.826108 4151.149097 3514.765525 0 
3865.86302 3122.079358 4150.757916 3514.902803 0 
3853.162653 3129.773457 4150.753714 3514.999036 0 
3395.13886 2600.14069 4150.949089 3514.89138 0 
3492.757154 2769.210289 4151.059807 3514.829784 0 
3858.122824 3204.231351 4151.040367 3515.001294 1 
3858.048952 3222.801427 4150.941656 3515.172674 1 
3842.135206 3225.244574 4150.83368 3514.936987 1 
3836.820682 3239.232777 4150.952512 3514.933702 1 
3822.062135 3242.960427 4151.086504 3514.974788 1 
3693.983885 3161.090218 4151.223824 3514.872744 2 
3675.980908 3168.922913 4151.014125 3514.988062 2 
3298.883203 2935.823932 4151.067846 3514.756026 2 
3333.805283 2995.858213 4151.00732 3515.104235 2 
3591.90964 3185.198976 4151.026909 3514.794846 0 
3603.193549 3214.110589 4150.981833 3514.764231 0 
3581.093366 3224.184344 4150.947933 3514.905501 0 
3610.894772 3259.784438 4151.130289 3515.128657 0 
3527.124656 3244.104113 4150.751401 3514.855564 0 
3513.777027 3262.015526 4151.093626 3514.910229 0 
3765.089458 3389.911472 4150.916256 3515.144741 0 
3847.019685 3427.173576 4150.998976 3515.179325 1 
3868.122552 3441.775885 4151.224171 3515.066101 1 
3746.136474 3423.956004 4151.080332 3514.97984 0 
3872.890348 3461.778265 4151.135342 3515.03512 1 
3839.812703 3466.015631 4150.913777 3515.187359 1 
3856.869744 3477.915178 4150.792923 3514.896771 1 
3561.180704 3496.136549 4151.057 3515.020162 0 
3533.798022 979.2232562 3537.914903 976.0677072 0 
3535.146832 980.1638789 3537.997032 976.0193836 0 
3535.189764 980.9712034 3537.835485 976.0762385 0 
3536.177207 983.1658167 3537.806079 975.8175554 0 
3537.194082 984.1914205 3538.102675 975.7567849 0 
3537.957051 985.7664522 3538.194144 976.0767956 2 
3537.93163 986.2370669 3538.223567 975.862334 2 
3538.123616 986.030567 3538.132496 976.1716382 2 
3538.003823 985.7973988 3537.989345 975.9006554 2 
3539.211278 986.2363777 3538.170039 976.1510417 2 
3538.957581 985.7555235 3537.97728 975.8847883 2 
3539.17134 986.0333591 3537.952344 976.1154222 2 
3539.97478 985.8050191 3538.122207 976.1818309 2 
3539.821471 986.0663509 3538.008627 976.0031015 2 
3540.053418 985.9821931 3538.115436 975.9270342 2 
3539.76276 985.9979314 3537.848672 976.0165834 2 
3599.04533 1132.088018 3538.167239 976.0066079 0 
3614.074395 1154.087278 3537.90765 975.7819765 2 
3703.092801 1328.13493 3537.916765 976.0141416 0 
3617.918289 1133.119108 3537.879564 976.1430684 2 
3623.174128 1130.751771 3538.074899 976.2455989 0 
3628.068122 1127.833526 3537.9987 975.8715398 2 
3635.065719 1118.864136 3538.048574 976.0784791 0 
3639.112067 1117.147246 3537.845062 975.9073976 0 
3648.985264 1111.762301 3538.164005 975.8096596 2 
3761.099579 1228.821655 3537.841636 975.9423805 1 
3782.206585 1236.008401 3538.206522 975.8748736 1 
3923.877509 1362.836086 3537.767942 975.8016369 1 
3912.837857 1328.092841 3537.797236 976.1559789 1 
3960.176367 1348.045936 3537.777519 975.9920861 1 
3954.160072 1320.076093 3537.820565 976.0221397 1 
3985.973339 1324.915628 3538.179537 976.2086034 1 
4356.927929 1571.093543 3537.768263 975.7775081 0 
4385.165198 1513.859899 3537.969889 976.1217826 2 
4274.1183 1411.926411 3538.246656 976.2458094 0 
4300.012497 1394.764598 3537.797446 976.1003534 0 
4241.10744 1306.844682 3538.006332 976.0338068 0 
4247.140618 1283.033851 3537.775893 976.0506907 0 
4252.859944 1258.846458 3537.82283 976.0832829 0 
4229.012086 1224.752368 3538.041886 976.1900147 2 
4214.09591 1196.060149 3538.217523 976.0111083 0 
4235.170048 1178.937411 3537.882891 976.0383484 0 
4094.113822 1118.879547 3538.034158 975.8763184 0 
4167.894146 1117.081604 3538.226672 975.7515852 0 
4155.176286 1093.983004 3538.035392 976.0669047 0 
4075.766855 1062.061285 3537.867595 975.8767988 0 
3963.157743 1029.940426 3538.210082 975.9198286 0 
3964.942793 1003.001968 3537.859843 975.7887039 0 
4112.812117 994.827366 3538.049812 976.2321657 2 
3961.014777 976.182703 3538.020514 975.8785991 0 
3958.81225 962.8046718 3538.004918 975.9563958 0 
4082.136276 941.9815893 3537.957981 976.0625621 0 
4022.214593 931.243373 3537.879467 976.2314485 0 
3955.054658 923.9970622 3537.858247 975.9624008 2 
3903.187488 918.8183291 3538.132229 975.8802814 0 
4010.070297 887.2420727 3537.918985 976.1324144 0 
3894.819439 897.2187973 3538.11458 976.084216 0 
4027.1515 850.8850942 3538.212815 976.2137506 2 
4030.939766 832.9677327 3537.920146 975.8260419 2 
4024.199322 819.1281274 3538.138604 976.1639154 0 
4016.1215 804.7680707 3538.145364 975.9261582 0 
4009.015133 789.7536112 3538.138559 975.9526209 0 
4001.82194 776.0207884 3538.082902 976.1422374 0 
3724.012861 888.7518874 3538.024652 976.0822999 0 
3712.220685 865.8892319 3537.916516 976.1221852 0 
3709.024326 859.8793311 3538.085936 976.214092 0 
3703.097064 848.7560822 3537.790134 976.0463858 0 
3700.13421 843.1787379 3537.960301 976.0057099 0 
3722.196809 813.8556651 3538.181868 975.9619415 0 
3954.859276 584.070427 3538.164562 975.9312166 0 
3931.841215 581.9974646 3537.823454 976.1040765 0 
