ply
format ascii 1.0
element vertex 946
property double x
property double y
property double x_origin
property double y_origin
property int lab
end_header
3461.226994 3677.029442 4260.999985 3625.203483 1 
3442.886456 3703.909911 4261.154195 3624.970546 1 
945.8421255 4049.248718 4260.974885 3625.241782 0 
517.8189589 4224.085251 4260.87064 3624.943494 2 
351.0735147 4377.198805 4260.931198 3625.136235 0 
2810.934695 3952.158249 4261.244417 3625.065016 1 
2633.030748 4046.238095 4260.791951 3625.039112 2 
2762.841401 4063.116538 4261.055718 3624.818395 1 
2220.89598 4291.805703 4260.771878 3625.032436 0 
3001.965613 4081.176073 4260.752982 3625.057739 0 
3113.174791 4080.977867 4261.049521 3625.24375 0 
3113.813118 4123.170161 4260.937244 3625.136633 0 
2837.118966 4298.118442 4261.022869 3624.803661 0 
2336.026691 4609.017286 4261.118677 3624.807438 0 
1975.005381 4886.160628 4261.09655 3625.096781 2 
3334.027166 4174.902268 4261.165176 3625.173146 2 
3661.957971 4007.187054 4260.955583 3625.173584 0 
3672.113128 4025.958565 4260.981323 3625.037919 0 
3617.186432 4094.780844 4261.031669 3625.24955 0 
3697.201005 4063.218913 4261.136183 3625.069971 0 
3720.087355 4073.909052 4261.123632 3624.864046 0 
3713.176338 4108.992309 4260.921484 3624.931718 0 
3725.902936 4128.768034 4260.7785 3625.180102 2 
3888.920302 3997.193676 4261.103248 3625.128273 2 
3917.13073 3991.808831 4261.051858 3624.993858 0 
3925.017396 4006.783181 4260.781777 3624.953828 2 
3948.814025 4004.063446 4260.953378 3624.765029 0 
3956.032359 4019.839562 4261.085 3624.869714 0 
3962.998614 4035.958632 4260.98376 3624.924952 0 
3970.20094 4053.155244 4261.10667 3624.853877 0 
3978.173278 4071.135169 4260.783979 3624.84358 0 
3987.078845 4090.137227 4261.221854 3624.959575 2 
3815.196059 4437.023711 4261.203433 3624.963455 2 
3841.056892 4452.23521 4261.167282 3625.120917 0 
3873.048657 4449.870661 4261.135946 3624.831016 2 
3976.960222 4283.970946 4260.95073 3625.208836 0 
4011.179578 4258.18449 4260.883788 3625.130518 0 
4043.089734 4233.240458 4261.234395 3625.013012 0 
4069.125627 4216.768374 4261.106592 3624.954472 0 
4084.155601 4236.078446 4261.164048 3625.10166 0 
4098.852157 4255.117481 4260.815114 3625.159049 2 
4034.102692 4643.232396 4261.029966 3624.901348 0 
4068.853057 4632.915912 4260.982364 3625.06328 2 
4104.136858 4618.183094 4261.022116 3625.066436 0 
4140.117584 4588.155904 4260.946953 3624.957318 0 
4172.146361 4566.931348 4261.22033 3625.021988 0 
4206.949722 4482.076922 4261.22646 3624.855323 0 
4234.905368 4465.140508 4261.206982 3625.007525 0 
4298.007989 4779.772096 4260.916574 3624.860681 0 
4332.754493 4769.19654 4261.012029 3624.85755 0 
4383.862451 4924.244394 4261.170829 3625.249309 0 
4410.177488 4566.942945 4261.065745 3625.045073 1 
4463.848849 4686.762698 4260.752391 3625.24521 2 
4496.944046 4679.222721 4261.017198 3625.143768 0 
4584.049643 4879.993658 4261.24909 3625.205011 2 
4621.884166 4868.206072 4260.962536 3625.142156 2 
4553.228168 4524.129109 4260.752837 3625.232661 1 
4571.075649 4487.014866 4260.840211 3625.1881 1 
4587.00926 4447.76104 4261.18741 3624.936748 1 
4669.953985 4571.003155 4261.23182 3625.052833 0 
4795.015853 4761.234211 4261.048043 3625.209899 0 
4898.206932 4874.815241 4261.103667 3625.006575 2 
4462.058899 3965.102757 4260.961586 3625.193065 1 
4813.058829 4495.174121 4261.085221 3625.036998 0 
4937.053231 4443.088058 4261.019659 3624.87888 0 
4966.852924 4426.109869 4260.81698 3625.112184 0 
4862.120909 4264.75439 4260.798932 3624.824894 1 
4855.007545 4218.780752 4261.127727 3624.773397 1 
4873.764963 4201.92577 4261.233296 3625.221895 1 
4462.991011 3720.086963 4260.97847 3624.79991 1 
4466.93972 3715.190056 4261.242975 3625.24855 1 
4848.114178 3532.078197 4261.035547 3624.917408 0 
4814.916255 3519.805206 4261.046288 3625.019179 0 
4784.165075 3508.113269 4260.881363 3625.035985 0 
4718.117659 3507.930295 4261.110878 3624.875203 0 
4710.961047 3494.988605 4260.898601 3624.97601 0 
4687.164375 3486.881897 4260.947905 3624.905386 0 
4682.21886 3474.176375 4260.955296 3624.90858 0 
4683.116432 3458.948272 4260.90713 3624.980609 0 
4679.776468 3444.192677 4261.148018 3624.942723 0 
4674.247883 3430.944306 4261.211902 3625.162959 0 
4667.807575 3417.843265 4260.948943 3625.175233 0 
4661.023559 3404.809822 4260.800437 3625.234606 0 
4655.048427 3392.949037 4260.960616 3624.962802 0 
4500.080934 3473.158521 4261.118189 3625.049794 0 
4478.084897 3477.823485 4261.208374 3624.951328 0 
4475.021756 3469.865504 4261.181938 3625.048225 0 
4470.808181 3463.079955 4261.240948 3624.806065 0 
4466.774261 3455.20285 4261.219023 3624.831836 0 
4463.796114 3446.917967 4260.757069 3625.069674 0 
4593.977788 3312.807506 4261.05428 3624.776215 0 
4500.006543 3385.764896 4260.989017 3624.837478 0 
4473.173417 3398.857206 4261.137272 3625.008314 0 
4449.930691 3410.095646 4261.209643 3625.202447 0 
4431.21115 3419.14158 4261.000672 3624.769332 0 
4405.971535 3436.99162 4260.825396 3624.995796 0 
4400.944469 3432.79442 4261.077632 3624.990584 0 
4396.962386 3425.084701 4260.810257 3625.190174 0 
4393.142208 3417.114537 4261.216389 3624.898751 0 
4396.129433 3397.955407 4260.986229 3625.052851 0 
4392.062613 3387.8735 4260.811165 3625.243304 0 
4387.219147 3378.770808 4261.195751 3625.180297 0 
4382.162388 3368.946423 4261.199629 3624.883923 0 
4377.188043 3357.775025 4261.129719 3624.882512 0 
4370.819445 3345.957352 4261.123095 3625.031831 0 
4365.792053 3334.183353 4260.972006 3625.184261 0 
4359.04789 3320.938395 4260.833011 3624.927323 0 
4353.143802 3308.06924 4261.230174 3624.956415 0 
4346.19274 3292.791339 4260.949719 3625.161887 0 
4338.812147 3277.89547 4261.092184 3625.224534 0 
4330.091893 3260.041813 4260.858457 3625.029936 0 
4328.066839 3198.238177 4261.162447 3625.136284 0 
4371.945528 2744.035543 4260.918115 3624.987581 0 
4342.968895 2759.14012 4260.921842 3624.766785 0 
4314.828515 2773.004853 4260.944109 3625.222317 0 
4286.824093 2786.924283 4260.928732 3624.766834 2 
4261.965622 2285.128451 4261.178721 3625.027768 0 
4227.773921 2575.020905 4261.002303 3625.115814 0 
4193.812718 2555.11076 4260.895749 3625.129556 0 
4183.098937 2800.808197 4261.01584 3624.794465 0 
4157.093739 2801.183955 4261.032047 3624.812634 0 
4135.074075 2826.203888 4260.82942 3625.152591 1 
3916.958742 1819.023528 4261.124908 3625.032835 0 
3994.197811 2426.80364 4261.049668 3624.913433 1 
3977.182091 2515.978389 4261.191201 3625.206011 0 
3985.249294 2675.943504 4261.071825 3624.812012 0 
3955.804264 2687.217574 4261.191568 3625.153201 0 
3931.775771 2709.957408 4261.197667 3625.11951 0 
3882.891363 2668.979713 4261.182145 3625.215438 0 
3831.933602 2630.761564 4261.118029 3625.142344 2 
3969.035093 3004.992937 4260.925178 3624.982904 1 
3597.046576 2320.224847 4261.146337 3624.978667 0 
3809.953236 2804.087538 4260.934678 3624.95253 0 
3904.781042 3021.756503 4261.014542 3624.835306 1 
3918.224078 3084.95611 4261.238508 3625.249848 2 
3903.163518 3097.186175 4261.119359 3624.804881 2 
3886.915888 3110.051503 4260.77032 3625.09949 0 
3870.063067 3120.138348 4260.991833 3624.84816 0 
3851.881285 3131.167012 4261.081064 3625.177861 0 
3473.141859 2730.9774 4260.906528 3624.845095 0 
3551.814938 2870.091207 4261.047624 3624.84598 2 
3592.09771 2955.812166 4260.931286 3625.071788 0 
3610.018276 3012.919794 4261.071636 3624.931794 0 
3697.855969 3128.940995 4260.986675 3625.021857 0 
3696.242498 3158.006995 4260.871346 3625.055565 0 
3673.895343 3169.11318 4261.153725 3625.026628 2 
3276.030191 2908.984789 4260.954489 3624.92205 0 
3332.212189 2992.111018 4261.017144 3624.777127 2 
3600.952224 3205.814769 4260.873107 3624.799934 0 
3614.876935 3243.054394 4261.121722 3625.14521 2 
3520.224188 3216.943358 4260.827004 3624.830157 0 
3755.134353 3367.06368 4261.102014 3625.126851 0 
3764.820675 3392.22336 4260.932416 3624.966018 0 
3805.08654 3427.836141 4261.242646 3624.866731 1 
3808.07093 3445.947135 4261.038781 3625.033119 1 
3803.808153 3460.805926 4261.060247 3625.010377 1 
3794.870694 3473.183354 4261.060311 3624.997629 1 
3674.987748 3453.932034 4260.892839 3624.961936 0 
3637.125392 3463.969844 4261.042094 3625.009745 0 
3593.783524 3474.894108 4260.886596 3624.854198 0 
3568.867468 3492.069012 4261.070216 3625.204008 0 
3504.155154 3505.062862 4260.82074 3624.976084 2 
3511.759997 3530.109521 4260.759204 3624.81815 0 
3524.165446 3555.06945 4261.078527 3624.786141 2 
3462.002805 3573.888838 4261.03377 3625.240553 0 
3418.070872 3598.176609 4260.952489 3624.946264 0 
2002.896453 3822.244583 3780.206009 3818.929976 1 
1105.88869 3907.842605 3780.034174 3819.006158 0 
786.1616176 4011.85439 3779.960166 3819.066771 0 
853.1672523 4101.030906 3779.792855 3819.177249 2 
483.8904268 4240.802059 3780.245399 3818.805873 0 
2817.121509 3974.073926 3779.842014 3818.874314 1 
2609.212764 4045.125784 3779.864866 3819.033636 2 
2647.052392 4074.067356 3780.2299 3819.198845 0 
2912.061938 4044.185909 3779.878821 3819.200628 2 
2895.778514 4077.162995 3779.956787 3819.190132 2 
2979.767386 4081.166953 3780.006903 3819.184638 0 
3062.947859 4079.049758 3780.111887 3819.088286 0 
3113.101817 4084.107286 3780.144159 3818.973326 0 
3113.931212 4108.236173 3780.09764 3818.893977 0 
3115.111956 4133.212506 3780.177613 3818.914349 0 
2838.029862 4301.157512 3779.863194 3818.8418 0 
2340.093421 4612.992015 3779.792429 3819.121935 2 
1977.90501 4887.999215 3780.062067 3818.922396 2 
2511.916168 4625.81897 3779.857034 3819.114027 0 
2724.118728 4538.218921 3779.952313 3818.970545 0 
3134.076208 4289.846472 3780.193872 3818.75742 2 
3272.832644 4214.041512 3779.901397 3819.194601 0 
3346.004018 4178.82901 3779.85895 3818.78388 0 
3358.236522 4191.972144 3779.87568 3819.079943 2 
3278.214159 4290.918109 3779.951879 3818.869169 2 
3288.167324 4311.763946 3780.041565 3818.833493 2 
3298.832915 4332.148599 3780.19752 3819.201644 0 
3290.117521 4375.899832 3779.922189 3818.943729 2 
3341.996304 4349.86606 3779.951149 3819.078948 2 
3371.157572 4348.102546 3780.023549 3818.91159 2 
3638.181556 4015.132499 3779.94547 3819.168078 0 
3652.854643 4007.071151 3779.998021 3818.818801 0 
3661.23926 4006.1999 3779.937971 3819.156584 0 
3665.213845 4013.229536 3780.240077 3818.796761 0 
3669.128135 4020.187596 3780.248404 3818.995656 0 
3672.837429 4027.920593 3780.189385 3819.083733 0 
3678.036654 4035.890535 3779.912681 3818.944226 0 
3674.243081 4065.186231 3780.105816 3819.174636 0 
3686.06873 4057.801286 3780.092714 3819.173372 0 
3694.122437 4055.840735 3780.242174 3819.111697 2 
3698.790635 4066.930144 3780.018281 3818.75448 0 
3707.90968 4068.008358 3779.80124 3818.787816 0 
3715.945954 4065.799644 3780.033472 3819.033383 2 
3721.970237 4076.972857 3779.867116 3818.756891 0 
3728.113392 4088.029797 3779.951117 3819.106473 0 
3726.966028 4149.806932 3780.031109 3818.784758 0 
3698.858219 4457.873823 3780.20813 3819.230656 0 
3719.964558 4449.200304 3780.092352 3819.005193 2 
3744.880448 4374.860633 3780.009673 3819.040128 0 
3763.118991 4366.060913 3780.077944 3818.814945 0 
3780.110557 4249.861416 3780.098328 3818.830794 0 
3798.084273 4407.215444 3779.837685 3818.947665 0 
3820.995242 4463.038802 3779.804138 3819.21127 0 
3840.095734 4452.085247 3780.246027 3819.203953 0 
3858.20907 4441.204157 3780.184609 3818.923628 2 
3882.154461 4466.026961 3780.178821 3818.784909 0 
3919.137594 4550.938493 3780.075038 3819.006585 0 
3941.249406 4541.902982 3780.07153 3819.109963 0 
3963.014398 4532.919858 3780.190758 3818.848672 0 
3985.885303 4527.778443 3780.046337 3819.130544 0 
4048.067245 4645.100475 3780.091814 3818.91298 0 
3953.935721 4302.087841 3779.866933 3818.894791 0 
3967.041999 4291.801541 3780.068419 3818.94646 0 
3980.078502 4281.99724 3779.981369 3818.966097 0 
3868.185733 4006.806407 3780.222682 3819.185139 0 
3870.959389 3999.044212 3780.045103 3819.223788 2 
3877.21407 3996.98586 3779.822459 3818.849373 0 
3883.014303 3994.118796 3780.229917 3818.831548 0 
3891.969271 3997.071731 3779.994528 3819.154992 0 
3897.909572 3994.111461 3779.799783 3819.201571 0 
3905.163002 3991.118202 3779.898031 3818.991504 0 
3910.865442 3989.129401 3780.207601 3818.801175 0 
3934.185808 4006.180283 3780.236315 3818.895197 0 
3940.974495 4002.031417 3779.868985 3818.938565 0 
4703.767277 4803.941444 3780.037938 3819.03158 0 
4752.81024 4793.017855 3780.113129 3819.029511 2 
4655.839586 4640.857657 3779.934502 3818.999158 0 
4566.219117 4512.984285 3779.95073 3819.132119 1 
4576.852487 4479.098761 3779.873624 3818.967929 1 
4918.978161 4701.831225 3780.019104 3818.913969 0 
4825.761508 4579.005419 3780.059166 3818.986002 2 
4790.786836 4506.178151 3780.174567 3818.804113 0 
4829.869595 4485.962505 3780.085693 3818.929836 0 
4979.23036 4527.948822 3780.209346 3818.819946 2 
4933.056479 4452.893849 3780.069105 3819.025596 0 
4969.128134 4424.769834 3779.907715 3819.230621 0 
4855.118595 4284.031339 3779.94855 3818.846756 1 
4463.112563 3972.217654 3780.010725 3819.124071 1 
4463.973072 3710.819892 3779.860073 3819.009908 1 
4870.248043 3539.78464 3780.064021 3818.867638 0 
4812.997146 3518.899714 3780.047474 3818.977506 0 
4762.098536 3500.00682 3780.047452 3818.905015 0 
4707.150669 3485.866557 3780.180611 3819.028802 0 
4676.886391 3464.838326 3780.009423 3818.754986 0 
4674.119664 3432.207973 3779.851742 3818.982228 0 
4473.175627 3467.112467 3779.856299 3818.8987 0 
4464.182359 3443.966372 3780.158608 3819.180402 2 
4629.001013 3317.972629 3779.79804 3819.248158 0 
4398.122343 3427.095514 3779.975664 3818.970879 0 
4396.852334 3399.773116 3780.125894 3818.753003 0 
4376.889673 3357.056504 3780.031805 3819.026064 0 
4366.14483 3334.791229 3780.03105 3819.014494 0 
4355.249202 3312.132792 3780.246722 3819.174829 0 
4343.995259 3288.853021 3779.823528 3818.927617 0 
4333.069393 3266.232136 3779.858019 3818.820405 0 
4332.954765 3230.906059 3779.818563 3818.827107 0 
4897.751573 2468.044227 3780.047986 3818.853907 0 
4794.067343 2511.92388 3779.85691 3819.207016 0 
4742.230384 2497.138715 3779.98308 3819.125214 0 
4592.179944 2624.76413 3779.889708 3819.179146 0 
4510.146921 2668.886429 3780.103975 3818.89218 0 
4435.98945 2710.177503 3780.069797 3818.808843 0 
4371.159639 2744.177816 3779.879248 3818.864404 0 
4311.833875 2774.947812 3779.941511 3818.835448 0 
4275.242039 2767.239498 3779.939354 3819.059382 0 
4332.913377 2543.046264 3780.016399 3818.893761 0 
4146.93498 2801.249479 3779.768975 3818.864924 0 
4120.763609 2771.908682 3779.794069 3819.16053 0 
4170.045112 2480.148044 3779.80271 3818.784562 0 
4142.075548 2410.122507 3779.843404 3818.985187 0 
3962.050323 3003.972652 3780.099591 3819.134198 1 
4001.170464 2661.791102 3780.219646 3819.162503 1 
3892.7806 3105.909 3779.971885 3818.943977 0 
3868.205265 3121.238284 3780.087739 3818.890244 0 
3814.237763 3460.106714 3780.005168 3818.751372 1 
3802.765396 3449.049237 3780.161902 3819.060507 1 
3790.947281 3465.214612 3780.095069 3818.772829 1 
3780.08712 3441.188473 3780.008016 3818.887443 1 
3766.911126 3414.857607 3779.771641 3818.83159 0 
3754.898709 3420.241287 3780.244093 3818.92931 0 
3742.900288 3424.965978 3780.123287 3818.855552 0 
3729.954262 3423.961026 3779.995796 3818.942025 0 
3717.817739 3428.750964 3779.943397 3818.833135 0 
3706.050201 3433.855299 3780.143642 3819.247483 0 
3695.819911 3445.988711 3779.770312 3819.157031 0 
3684.927185 3450.028327 3779.794474 3819.08831 0 
3674.135934 3454.816116 3780.1699 3818.784644 0 
3662.807403 3459.163993 3779.963953 3818.95769 0 
3649.879971 3458.83724 3780.063243 3819.084233 0 
3639.048266 3462.809039 3779.776259 3819.116005 0 
3627.810003 3467.969656 3780.19914 3819.110204 0 
3614.074955 3467.092783 3780.107687 3819.144866 0 
3602.831494 3471.127998 3780.051897 3819.008679 0 
3590.906326 3476.096372 3779.846989 3818.79226 0 
3582.162487 3485.766889 3779.826904 3819.21989 0 
3572.180882 3491.040857 3779.927581 3818.810853 0 
3561.128098 3496.240823 3780.145086 3818.926364 0 
3548.799862 3501.171345 3779.792369 3818.859865 0 
3454.891001 3400.241509 3780.220069 3819.215956 2 
3413.084292 3376.077756 3780.110822 3819.165786 0 
3503.955754 3506.912719 3779.924465 3819.112079 2 
3515.759091 3539.021454 3780.154339 3819.171579 0 
3519.038344 3558.231243 3780.141469 3818.969226 0 
3508.0221 3562.81905 3780.030079 3818.900198 0 
3494.809873 3567.925165 3780.076561 3818.859735 0 
3476.84651 3568.11893 3779.969601 3818.987511 0 
3463.11044 3572.93967 3779.953467 3818.944732 0 
3449.767425 3578.814289 3779.860518 3818.973179 0 
3440.977008 3589.034983 3779.835259 3818.986099 0 
3425.806437 3595.239598 3779.907678 3819.094781 0 
3411.220841 3600.799147 3779.814007 3818.992941 0 
3387.868197 3603.094086 3780.143139 3818.92807 0 
3370.769252 3609.9697 3780.037805 3818.865762 0 
3448.83863 3662.757406 3780.103273 3819.19907 1 
3469.947075 3684.80674 3779.893802 3818.964501 1 
3308.871029 3633.00432 3780.18768 3819.098037 0 
3434.789303 3694.772939 3779.834137 3818.84574 1 
3435.762536 3706.991815 3780.190522 3819.233377 1 
3410.040962 3711.754529 3779.976318 3819.159158 1 
3464.098615 3737.869457 3779.837228 3819.117867 1 
2991.089157 3642.125033 3780.233629 3819.177787 0 
2953.132438 3661.086902 3780.126857 3818.829514 0 
2694.143642 3645.770659 3780.044015 3818.764671 0 
2646.024978 3673.981695 3780.112709 3819.064281 1 
2628.004633 3709.196845 3780.160022 3819.01717 1 
1283.93866 3659.100544 3780.000547 3819.229622 0 
2011.105072 3761.226865 3780.13878 3818.953688 1 
1469.846322 3022.226007 1514.821554 3021.185479 0 
1470.10104 3022.805184 1515.113266 3020.983479 0 
1471.142086 3023.990123 1515.062992 3021.035728 0 
1473.010782 3025.857007 1515.0504 3020.78576 2 
1473.088702 3026.913108 1515.100041 3020.843335 2 
1472.859954 3028.010063 1515.110505 3021.048614 2 
1467.860607 3029.861052 1515.028235 3021.215679 0 
1461.837917 3032.917015 1514.919367 3020.93424 0 
1452.893022 3036.990921 1514.869719 3021.244063 0 
1408.046105 3052.232985 1514.977541 3020.938191 0 
1409.973107 3054.790533 1515.223919 3021.233889 2 
1381.89754 3069.024319 1514.769649 3021.236242 0 
1288.187427 3112.119691 1514.829577 3020.797381 2 
1286.879754 3120.190082 1515.095995 3020.990361 0 
1289.801134 3126.87423 1514.95604 3020.889051 2 
1416.041245 3072.125407 1515.073291 3021.184268 2 
1416.866329 3075.19301 1515.17833 3021.162434 0 
1419.175994 3077.905872 1514.850625 3020.899102 0 
1419.946405 3080.824544 1514.88299 3021.093945 0 
1422.098863 3083.90264 1515.080187 3021.036291 0 
1423.77233 3088.159764 1515.083672 3020.902084 0 
1426.099846 3090.929667 1515.142445 3021.15098 0 
1427.053897 3093.848485 1514.790032 3020.845142 0 
1429.223893 3097.113323 1514.77941 3020.840221 0 
1431.056332 3101.207741 1514.752655 3020.982327 0 
1431.863612 3103.85328 1515.131428 3021.060017 0 
1433.927825 3106.764419 1514.903963 3020.776688 0 
1435.917058 3110.23415 1515.062979 3020.939388 0 
1439.143914 3111.896651 1515.091472 3020.993761 2 
1351.076318 3231.983917 1514.894741 3020.880215 0 
1458.082402 3099.934773 1514.975358 3021.056295 0 
1463.798095 3097.004768 1515.146516 3021.104428 0 
1467.962509 3095.149171 1514.836754 3021.076121 0 
1472.752451 3092.218182 1514.886138 3020.930276 2 
1474.232601 3094.040101 1514.956964 3020.899659 2 
1476.024251 3097.769943 1515.089047 3020.918166 0 
1476.916594 3099.930519 1515.161926 3021.242912 0 
1479.164436 3103.806667 1514.873127 3020.996838 2 
1460.99144 3158.098485 1514.803133 3021.039535 0 
1463.853253 3164.199649 1514.893963 3021.065762 0 
1467.09882 3169.980717 1514.891883 3021.101272 0 
1471.9489 3169.028021 1514.781548 3020.931501 2 
1416.818122 3404.988512 1515.08116 3021.092373 0 
1431.008454 3396.920207 1514.760539 3021.175048 0 
1476.100727 3226.172465 1515.16796 3021.015163 0 
1483.229132 3221.791087 1514.762001 3020.970572 0 
1490.139572 3217.815134 1514.760107 3021.242825 0 
1495.764783 3214.90407 1515.058587 3021.113603 0 
1507.134787 3136.20047 1514.964875 3020.833687 2 
1510.97849 3133.996422 1515.015187 3021.046613 0 
1515.234934 3131.846347 1514.888986 3020.993388 0 
1518.016555 3129.899525 1514.918437 3020.867281 0 
1520.82199 3127.836397 1515.132444 3020.801122 0 
1523.877485 3124.144445 1515.021694 3020.767057 2 
1527.209579 3123.0318 1514.759882 3021.224362 0 
1530.18587 3121.068469 1515.087964 3021.070657 0 
1533.018939 3118.802839 1515.154343 3021.247429 2 
1538.049261 3127.919531 1515.044042 3021.034195 0 
1545.015878 3141.183028 1514.777583 3020.782432 0 
1597.832553 3306.94602 1514.899714 3020.904543 0 
1606.032417 3301.782158 1514.955665 3021.159902 0 
1614.176603 3298.227359 1515.176959 3021.136181 0 
1622.009159 3294.186841 1515.110543 3020.945029 0 
1559.00531 3122.948507 1514.765685 3020.774249 0 
1561.001346 3120.170028 1514.771678 3020.800608 2 
1563.839559 3119.06572 1515.084803 3021.105437 0 
1564.998747 3112.112386 1515.137869 3021.0813 2 
1565.808407 3107.787583 1515.235843 3021.090824 2 
1567.819741 3105.941508 1515.000725 3021.246343 2 
1570.918866 3103.927684 1515.132524 3021.178025 0 
1572.864525 3102.993067 1514.873054 3021.119835 0 
1576.191575 3100.888739 1515.144084 3020.942921 0 
1578.808768 3100.165761 1514.993529 3020.898327 0 
1543.981481 3053.828332 1514.753763 3021.230229 0 
1542.190718 3050.141633 1515.061529 3021.249125 0 
1541.179216 3047.047372 1515.089948 3021.248956 2 
1541.23888 3045.840674 1515.245299 3020.907746 2 
1541.018358 3045.127824 1514.835771 3021.132883 2 
1541.870891 3044.958825 1515.002718 3020.812466 2 
1544.097564 3044.896801 1515.005387 3021.156332 0 
1545.812563 3044.248916 1514.804659 3021.044044 0 
1546.827248 3042.808422 1515.024272 3020.767966 2 
1547.200055 3041.835801 1514.767091 3021.129271 2 
1548.133173 3042.107039 1515.128227 3021.122052 2 
1572.197713 3053.123526 1514.779798 3020.966071 0 
1571.00135 3049.865569 1514.848954 3021.122241 0 
1569.074395 3047.101672 1515.184707 3020.921959 0 
1568.248473 3043.940094 1514.828291 3020.811035 0 
1567.939011 3041.882949 1515.105079 3021.016258 2 
1567.941371 3040.879351 1515.034225 3020.891426 2 
1569.965152 3040.051316 1514.770696 3020.848325 0 
1572.908355 3039.148923 1515.220377 3020.856069 0 
1576.02245 3036.750175 1515.07214 3020.7738 0 
1577.865745 3036.171094 1515.146041 3021.190139 0 
1582.022765 3034.080749 1514.862098 3021.021238 0 
1583.770843 3032.940389 1515.082273 3020.959854 0 
1583.073338 3029.937352 1515.226112 3020.764709 0 
1582.066704 3028.010337 1514.906135 3020.781856 0 
1580.811652 3025.926832 1514.880181 3020.970008 0 
1579.825755 3023.850558 1515.076076 3021.098205 0 
1577.850733 3020.898216 1515.122005 3020.966478 0 
1577.81931 3020.018046 1514.906618 3021.092075 0 
1576.848794 3018.018716 1514.863313 3020.869637 0 
1576.209105 3016.195586 1515.079491 3021.032443 0 
1575.882939 3014.055603 1515.047153 3021.199642 2 
1580.81594 3011.203288 1515.231498 3020.877592 2 
1580.88012 3008.861679 1515.0976 3020.955875 2 
1579.962236 3006.923676 1514.80408 3021.06297 0 
1579.071891 3005.176084 1514.779448 3021.141201 0 
1577.94413 3002.936065 1514.983276 3021.042924 0 
1577.204781 3001.096589 1515.162562 3021.163886 0 
1576.042175 2998.992052 1514.946329 3021.175114 2 
1575.797655 2997.243481 1515.124756 3020.863595 2 
1595.196769 2987.106254 1514.991187 3020.826889 0 
1708.217933 2929.838786 1515.032764 3020.930169 0 
1709.012462 2923.086843 1515.243139 3020.834353 0 
1706.012928 2915.772586 1515.225554 3021.207057 0 
2064.958652 2695.95883 1514.999982 3020.913433 0 
1698.805419 2903.912543 1514.827319 3021.097594 0 
1696.154596 2898.023648 1515.022708 3021.202251 0 
1693.017129 2891.897464 1514.815846 3020.963899 0 
1689.753719 2886.057033 1515.040788 3021.221652 0 
1695.14582 2871.823552 1514.901821 3020.908282 0 
1675.160395 2879.89496 1514.992635 3020.923323 0 
1671.917546 2873.968189 1514.88038 3021.126198 0 
1596.17702 2940.130362 1514.789631 3021.232439 2 
1587.792905 2942.866949 1515.080033 3021.197501 0 
1567.140597 2960.852741 1515.149752 3020.907726 2 
1563.000205 2962.215598 1515.121625 3021.003924 0 
1558.022631 2964.912412 1514.975575 3020.918451 0 
1553.985964 2967.127396 1515.076732 3020.896359 0 
1549.772356 2968.819368 1515.069682 3020.939902 0 
1548.037557 2970.200062 1514.8161 3020.964577 0 
1546.080424 2967.85573 1514.947015 3021.123329 0 
1544.97268 2965.777048 1515.07083 3020.863277 0 
1543.879789 2963.970582 1515.021003 3021.129995 0 
1542.93618 2961.892628 1514.883918 3021.208811 0 
1542.05504 2959.109494 1514.877262 3020.791004 0 
1540.98689 2956.203995 1514.937363 3021.009246 0 
1538.773362 2952.757045 1515.199148 3021.060919 0 
1538.207107 2950.765248 1514.775496 3021.03753 0 
1535.870978 2946.972511 1514.910859 3021.093658 0 
1534.999559 2944.231688 1515.206935 3021.129349 0 
1532.95227 2940.977938 1515.009343 3021.13845 0 
1543.120566 2872.143261 1515.097261 3020.925606 0 
1538.002755 2874.224523 1514.96661 3021.239645 0 
1533.178518 2877.153973 1514.998891 3021.20188 0 
1527.161018 2889.948039 1515.012799 3021.118124 0 
1522.963286 2892.038294 1514.905654 3021.084264 0 
1518.760805 2894.066513 1514.927922 3021.010365 2 
1515.048202 2888.884857 1514.889713 3020.750472 0 
1510.112795 2879.149056 1515.138921 3020.98336 0 
1504.042318 2846.986182 1515.158966 3020.795073 0 
1495.960706 2825.875576 1514.784718 3020.889223 0 
1496.779549 2886.033609 1514.841103 3021.190567 1 
1492.231648 2882.103901 1515.058691 3020.944934 1 
1498.892196 2941.214346 1514.779198 3020.903001 2 
1497.030859 2941.957121 1515.163366 3020.829061 0 
1495.091978 2942.803079 1514.829532 3020.954772 0 
1492.202135 2945.218454 1515.188133 3020.994453 0 
1489.954636 2946.097099 1515.039526 3021.165342 0 
1488.222675 2948.074244 1514.804565 3020.752224 2 
1483.857853 2942.895667 1515.192791 3020.839501 0 
1445.249569 2859.001482 1515.034435 3020.891764 0 
1439.965828 2862.063634 1515.044765 3021.246687 0 
1479.770755 2954.958131 1514.825748 3021.112732 2 
1479.011209 2956.90528 1514.817504 3020.963344 0 
1476.873733 2956.755637 1515.207797 3021.078369 0 
1475.102735 2957.997323 1514.993711 3021.07541 0 
1472.821567 2960.048275 1515.077634 3020.929421 2 
1470.193943 2960.020425 1515.018922 3021.193512 0 
1422.771907 2903.803358 1514.835276 3020.987735 0 
1423.116991 2910.130041 1514.984422 3021.137746 0 
1418.838172 2912.06017 1515.000478 3021.099381 0 
1414.215449 2915.067982 1514.812726 3020.839183 0 
1410.073619 2916.770523 1515.167552 3020.926355 0 
1362.017846 2877.911263 1514.751765 3021.089414 1 
1361.209538 2886.079399 1514.768835 3021.153481 2 
1356.849824 2890.037757 1515.096993 3020.87173 0 
1350.091114 2894.182269 1515.109465 3020.958106 0 
1326.06231 2884.843887 1514.845851 3021.150482 0 
1333.154057 2898.09633 1514.999863 3021.119506 0 
1394.914312 2946.062589 1515.208689 3021.237931 2 
1407.083112 2958.126241 1514.914286 3020.850958 2 
1412.787504 2965.916051 1515.190372 3021.247042 2 
1412.24545 2969.209206 1515.150523 3020.845273 0 
1407.996963 2970.997516 1514.967004 3020.838077 0 
1403.929785 2972.826469 1515.046182 3021.242095 0 
1398.920356 2976.142034 1515.142576 3020.824413 0 
1461.988363 3002.892439 1515.193919 3021.152675 2 
1462.205028 3005.152608 1515.140607 3021.038139 2 
1463.028849 3006.804893 1515.139097 3021.066353 0 
1463.970944 3009.079469 1515.063395 3020.966394 0 
1464.038675 3009.963918 1515.061667 3020.785638 0 
1465.211434 3011.77867 1514.873715 3020.891219 0 
1465.855139 3014.169898 1514.883314 3021.025495 0 
1467.061931 3014.77589 1515.099908 3020.800295 0 
1467.91833 3017.043828 1515.20297 3020.873357 0 
1467.946435 3019.093577 1515.161497 3021.225284 0 
1469.14847 3020.050594 1515.041637 3020.869414 0 
1831.880063 4606.855032 1931.085807 4606.168739 2 
1834.06895 4609.897474 1931.204377 4606.030384 0 
1834.926145 4612.828092 1931.171604 4606.031284 0 
1837.24799 4615.804918 1930.806779 4606.059921 0 
1837.830808 4618.156688 1931.110216 4605.999138 0 
1839.950515 4621.063187 1931.122495 4606.146951 0 
1852.906764 4621.033992 1931.122235 4605.805234 2 
1853.834586 4623.913872 1930.924648 4605.96465 0 
1855.018904 4625.760455 1930.883389 4605.837854 0 
1855.907929 4627.837766 1931.118238 4606.084074 0 
1856.915858 4630.039842 1930.865357 4605.913848 0 
1859.094759 4632.922137 1931.223769 4606.175567 0 
1859.828825 4635.083986 1930.924705 4606.02934 0 
1860.897172 4636.7972 1930.926291 4606.053936 0 
1862.081192 4638.798526 1931.10917 4606.165779 0 
1862.962398 4640.783817 1930.880428 4606.231301 0 
1863.794272 4643.013817 1930.819155 4605.952202 0 
1865.101583 4645.187393 1930.786275 4605.767441 0 
1865.977235 4646.901633 1930.931289 4605.821994 0 
1867.073769 4648.905058 1931.247561 4606.152594 0 
1869.239044 4651.922267 1930.931934 4605.886216 2 
1870.969467 4652.108225 1931.190152 4605.800659 2 
1871.15675 4655.049322 1931.216438 4605.869148 2 
1678.083139 4828.846866 1930.85045 4606.127411 0 
1679.110683 4843.919605 1930.829613 4605.962266 2 
1684.856998 4852.865888 1930.979706 4606.084232 2 
1642.017521 4980.160995 1931.156226 4605.84129 0 
1656.816053 4984.153787 1931.243884 4605.805097 0 
1668.826054 4992.925818 1930.941313 4606.045521 0 
1686.784043 4989.881464 1931.09618 4606.190793 0 
1871.180786 4715.062618 1930.809941 4606.013925 2 
1878.159484 4710.910391 1930.891336 4606.020167 0 
1883.079995 4708.970949 1931.232433 4606.186993 0 
1888.086837 4705.96214 1931.021225 4605.854358 0 
1892.873135 4702.927451 1930.945648 4605.939188 0 
1896.831239 4700.939533 1930.994285 4605.907292 0 
1900.115351 4700.185598 1931.202813 4606.149394 2 
1901.817062 4706.048993 1931.090187 4606.247848 0 
1903.861611 4710.150128 1931.011773 4605.771096 0 
1905.810518 4714.153109 1931.041263 4606.140514 0 
1908.874059 4719.023696 1931.077507 4606.210896 0 
1912.235836 4724.848732 1930.815254 4605.85897 0 
1915.026183 4729.010903 1931.048158 4606.107422 2 
1915.200435 4769.792443 1930.764714 4606.065786 2 
1920.228041 4771.217527 1930.96518 4605.795103 0 
1926.016521 4767.805366 1930.792951 4606.128132 0 
1931.205494 4763.054724 1931.149228 4605.766012 2 
1935.957834 4771.940491 1931.156526 4606.081893 0 
1942.214187 4782.984033 1931.042789 4606.200023 0 
1958.082765 4894.108043 1930.808993 4605.858948 0 
1965.868946 4890.107151 1931.216369 4605.819381 0 
1975.149595 4886.231083 1931.135167 4606.127636 2 
1984.198611 4886.850347 1931.172739 4605.965131 0 
1991.905713 4883.21569 1930.843263 4605.861207 0 
2003.020415 4888.242491 1930.87722 4606.228249 0 
2026.932982 4938.783746 1931.060141 4605.897169 0 
2115.017779 4897.85293 1930.847192 4605.850543 2 
2086.210973 4835.906184 1930.959491 4605.829919 2 
2093.763336 4830.92586 1930.899301 4606.162931 0 
1985.906943 4676.784468 1931.040566 4605.855554 0 
1981.884815 4667.963305 1931.070685 4606.040529 2 
1983.928996 4668.163949 1931.151736 4606.199411 2 
1987.15644 4666.778956 1931.177659 4605.839422 0 
1987.812702 4662.987801 1930.986591 4606.080481 2 
1986.090731 4658.083783 1931.181024 4606.051704 0 
1986.239967 4654.890515 1931.131624 4605.753303 2 
1989.066375 4654.780924 1931.166233 4606.223319 0 
1990.815393 4653.9568 1930.828873 4605.950208 0 
1994.170105 4652.149558 1931.240737 4605.849101 0 
1969.063507 4632.142473 1930.798512 4605.969946 0 
1968.171429 4630.226171 1931.059368 4606.234131 0 
1966.963972 4627.795959 1931.064612 4605.804703 0 
1966.129742 4625.995636 1931.106407 4606.119709 0 
1967.136152 4624.98803 1931.123012 4605.952527 2 
1967.018955 4623.039245 1930.925846 4606.084347 2 
1967.246045 4622.004718 1930.784555 4606.16615 2 
1966.904276 4620.775292 1930.765252 4606.217783 0 
1966.167765 4618.813764 1930.937729 4606.089195 0 
1965.789935 4618.247098 1931.073326 4606.003907 0 
1964.793057 4615.887938 1931.05861 4606.172799 0 
1965.133575 4614.915017 1931.042508 4606.019726 0 
1964.153047 4613.915519 1931.222253 4605.922002 0 
1963.204765 4612.898099 1930.756349 4606.20081 2 
1963.152817 4611.790905 1931.11696 4605.807094 2 
1962.816197 4611.132212 1930.774877 4606.233962 2 
1968.195976 4609.962606 1931.073157 4606.235911 0 
1969.959704 4608.896483 1930.989818 4606.00276 0 
1972.034421 4607.798427 1930.925559 4605.917996 0 
1975.963444 4606.218067 1931.187722 4605.866491 0 
1977.883586 4605.159975 1931.038493 4605.838351 0 
1981.808074 4603.044842 1930.78916 4606.210892 0 
1986.085747 4601.156121 1930.767985 4606.151943 0 
1990.038332 4598.792862 1931.135905 4605.984308 0 
1994.005468 4596.959062 1930.970219 4606.215172 0 
1998.105545 4594.210036 1930.967932 4605.889966 2 
2008.758463 4589.143491 1931.057962 4605.971907 0 
2005.111558 4587.995685 1931.088398 4606.245144 1 
2005.90566 4583.876891 1930.833494 4605.963734 2 
1956.171733 4597.872655 1930.924626 4606.00748 0 
1954.778775 4596.942611 1930.909423 4606.067108 2 
1953.985473 4595.795328 1930.801416 4606.240941 0 
1953.004391 4595.021634 1931.206113 4605.859936 0 
1952.98167 4593.924045 1930.999902 4605.990134 0 
1951.817536 4592.807865 1931.212041 4606.179093 0 
1952.053549 4592.050439 1931.174237 4606.209209 0 
1951.17733 4590.757731 1930.922943 4606.099063 0 
1950.880386 4590.097569 1930.856543 4605.909161 0 
1949.79018 4589.015965 1931.226269 4606.025653 0 
1950.061294 4587.777684 1931.016594 4605.815684 0 
1949.049319 4586.972706 1930.92562 4605.780989 0 
1948.146751 4586.175523 1931.021122 4606.214287 0 
1948.233388 4584.983163 1931.14338 4606.036937 0 
1946.783602 4584.067617 1930.996146 4606.210932 0 
1947.075348 4583.16909 1931.059995 4606.205734 0 
1946.016659 4582.166538 1930.864895 4606.056839 0 
1945.932503 4580.841164 1930.832492 4606.243797 0 
1944.868849 4580.099085 1930.809481 4606.168167 0 
1943.821792 4578.985101 1931.199156 4606.218543 0 
1942.910624 4576.970279 1931.182829 4605.894012 0 
1942.203442 4576.07621 1931.180949 4606.237044 2 
1941.893827 4575.927095 1931.197976 4606.219175 2 
1951.846185 4541.007972 1931.174909 4606.112844 0 
1948.92451 4541.789805 1930.919682 4606.107013 0 
1945.880969 4544.002174 1931.10081 4605.999818 0 
1943.851259 4545.160291 1930.917985 4605.923051 0 
1941.895392 4545.867141 1930.891594 4606.056016 0 
1940.08742 4546.824423 1931.200028 4606.040862 0 
1938.150633 4548.130977 1931.027906 4605.79446 0 
1935.808072 4548.975882 1930.763635 4605.904257 0 
1934.233854 4550.188544 1930.7671 4605.908363 2 
1932.228349 4549.936783 1930.765376 4605.859318 2 
1931.188957 4548.116185 1931.109136 4605.790216 0 
1929.026476 4543.77712 1930.963267 4606.171868 2 
1925.894261 4529.104861 1930.977885 4606.231681 0 
1923.179285 4522.927913 1931.022543 4606.079918 0 
1918.80889 4514.800448 1931.124377 4605.866962 0 
1915.02633 4507.138012 1931.021218 4606.010184 0 
1910.076556 4497.038319 1931.168547 4606.054905 0 
1904.225102 4485.183923 1931.164223 4606.164059 0 
1892.050109 4458.023359 1931.204275 4605.826585 0 
1888.050479 4459.917542 1931.248453 4606.19474 0 
1883.772403 4461.976338 1931.176422 4606.201688 0 
1884.154251 4477.948964 1931.031606 4606.213141 2 
1879.999413 4479.905983 1930.830102 4605.775743 0 
1876.793995 4482.101321 1931.035927 4606.120551 0 
1872.88964 4483.954475 1930.925456 4605.864741 0 
1410.888398 3582.839679 1930.7788 4606.188507 0 
1382.113038 3605.233075 1930.765092 4605.913517 0 
1346.900617 3617.763545 1930.858257 4605.92302 0 
1371.989883 3723.784679 1930.874708 4605.894134 1 
1321.983643 3710.156314 1930.857275 4606.233056 1 
1008.812296 3335.937377 1930.758799 4605.856291 0 
1339.788698 3844.044726 1931.226842 4605.928338 0 
1751.2492 4389.902298 1931.043079 4605.887598 2 
1770.991978 4426.071878 1930.826105 4605.855016 0 
1769.054953 4433.841197 1931.018533 4606.20557 0 
1761.854743 4438.12679 1930.87859 4606.094626 0 
1763.161469 4449.003298 1931.23876 4605.895112 0 
1773.909612 4468.846035 1930.878168 4605.971908 0 
1776.033413 4477.886967 1931.078199 4606.072111 0 
1770.181692 4481.055041 1930.750448 4606.180893 0 
1786.20734 4502.043527 1930.818491 4605.949317 2 
1790.865405 4511.894596 1931.054333 4606.170358 0 
1796.985794 4521.822865 1931.125928 4606.090536 0 
1796.199655 4525.754518 1930.935162 4606.111124 0 
1791.007816 4528.923922 1930.756236 4606.167427 0 
1813.019958 4546.884404 1930.889335 4605.80337 0 
1816.021371 4553.217534 1931.125481 4605.953063 0 
1818.022575 4558.125929 1930.883956 4605.979915 0 
1820.919456 4562.952447 1931.179232 4606.034862 0 
1823.097044 4567.983565 1930.95522 4605.832837 0 
1826.05643 4572.831148 1931.173373 4606.006086 0 
1827.835666 4576.858535 1930.86721 4606.093481 2 
1823.032458 4578.873447 1931.010908 4605.802415 0 
1819.007851 4581.150243 1930.855785 4605.779222 0 
1813.117777 4584.231266 1930.982285 4605.890353 0 
1807.107195 4587.116242 1931.120268 4605.776652 0 
1800.818689 4590.0495 1931.061513 4606.165733 0 
1794.783065 4592.766733 1931.24857 4606.089496 2 
1731.847881 4594.171943 1930.845582 4605.933546 2 
1637.780479 4596.962792 1930.777027 4606.062936 0 
4559.086238 675.0379356 4690.115352 673.8440892 0 
4560.938179 679.221137 4689.873311 673.8059564 0 
4563.202403 683.1055966 4689.946309 674.0595986 0 
4565.971838 685.8165774 4690.08625 674.0405272 2 
4559.116078 690.8977632 4689.95626 674.1491431 0 
4552.914496 695.9548298 4689.988639 674.0123768 2 
4569.876773 698.0842206 4690.195923 673.9072518 2 
4569.797012 701.2229505 4690.220188 674.1332506 2 
4573.010886 705.0855398 4690.22734 674.1990651 0 
4575.056677 707.8506509 4689.755022 674.0090799 2 
4570.206248 712.9513309 4689.818679 673.9280858 0 
4571.017908 717.1549287 4690.218613 673.8839859 2 
4571.802692 720.9248727 4689.783129 673.9671881 0 
4574.129703 724.0217679 4690.229565 673.7564756 0 
4575.855989 728.175488 4689.913727 673.9030008 0 
4578.148438 730.8839157 4689.786251 673.9093246 0 
4580.219455 734.7635911 4689.85839 674.0261321 0 
4581.864242 737.8634113 4689.785212 673.8204896 0 
4584.064742 740.8538906 4689.998575 673.8326505 0 
4585.758819 744.9671883 4689.966636 673.8115113 0 
4588.142061 747.9997654 4690.028699 674.0217635 0 
4589.771533 751.0082643 4690.028239 673.8775219 0 
4591.933752 755.1919666 4690.030523 673.8321908 0 
4593.825882 758.066774 4689.991515 673.7953376 0 
4596.080365 762.0999052 4690.07147 674.1946072 0 
4600.213316 765.1066818 4689.765097 674.0280587 2 
4397.210572 986.0136721 4690.110709 674.2193918 0 
4470.23086 924.8273457 4689.780903 674.1229214 0 
4481.077111 927.0596025 4689.894685 674.0986445 0 
4487.817867 934.172924 4690.226166 674.0016191 2 
4502.114891 932.006689 4690.08381 674.1907728 0 
4507.823463 940.8253253 4690.23611 674.1538282 0 
4511.17523 957.0575801 4690.098435 674.138547 0 
4588.914262 846.1135322 4689.916606 673.8748343 0 
4599.877204 838.7773149 4689.844226 673.8580646 2 
4604.854661 839.8751292 4690.230986 674.1817717 2 
4614.184732 835.8756709 4690.030416 673.7525985 2 
4616.798595 842.0065826 4690.004218 674.1634854 0 
4620.763272 848.8380275 4690.104258 673.8367347 0 
4624.913353 855.0903686 4690.240563 673.8385833 2 
4629.897949 857.0889982 4690.22713 674.0622106 2 
4633.95253 864.893736 4690.187045 674.0797347 0 
4637.921051 873.781271 4690.187799 674.0257114 0 
4667.9064 772.1687853 4689.957483 673.8411319 2 
4670.794456 770.2378994 4689.84373 673.843051 2 
4673.994482 774.0979481 4689.756536 674.0077535 0 
4677.185976 777.1107946 4690.094488 673.8493284 2 
4666.951163 920.0850511 4689.937912 674.0991119 0 
4673.924049 923.9150421 4689.911322 674.1265797 0 
4681.058778 953.8483674 4689.956314 674.229829 0 
4689.879638 959.8941137 4690.00554 674.0360386 0 
4698.812899 957.2130236 4690.127171 673.8573551 0 
4708.200923 968.220901 4689.950406 673.9454049 0 
4711.068849 901.9569426 4690.203158 674.0048246 2 
4717.817737 899.0476466 4690.104153 674.0189003 2 
4736.882698 974.7920649 4689.868012 674.056747 0 
4739.957107 938.0293347 4689.933327 673.7658851 2 
4748.127702 934.1396411 4690.245714 673.7573405 0 
4756.783755 937.0012544 4690.043379 673.8466537 0 
4864.964278 1277.92055 4689.954009 673.9152009 2 
4800.891451 1016.154415 4690.110606 674.2102997 2 
4840.861358 1095.063764 4689.965124 673.9290947 0 
4878.861411 1153.819277 4690.197995 673.9941084 0 
4997.861342 1384.816007 4689.800855 674.0684492 2 
4990.095342 1220.984182 4690.084334 673.973044 0 
4714.873823 717.0800483 4689.980384 673.9075778 0 
4714.831303 713.7737636 4690.004232 674.0455807 2 
4715.944313 714.2082404 4690.210782 674.0857638 2 
4718.112655 714.0713874 4690.046063 674.2240129 0 
4718.885152 712.7611878 4689.903108 673.9965623 0 
4719.830465 711.8511027 4690.240671 673.9418074 0 
4721.91711 710.7915262 4689.760257 673.7624519 0 
4723.025708 711.0945908 4689.985496 674.1495314 0 
4724.924639 710.2158804 4689.807109 674.0059418 0 
4726.239644 709.0613407 4689.801522 673.9339572 0 
4728.019581 707.7623041 4689.769721 673.8822364 2 
4729.083691 708.0657846 4689.856249 674.218843 2 
4834.076972 787.009357 4689.965405 674.1574375 0 
4798.11046 752.9560761 4689.849245 673.7775697 0 
4795.997602 745.8595014 4689.790022 673.7733105 2 
4800.204092 745.0255175 4690.172842 673.8787313 0 
4803.991398 742.229951 4690.134673 673.981042 0 
4808.041292 739.1861955 4690.164999 673.8108728 0 
4805.1985 733.1847203 4689.943109 674.032191 0 
4806.000505 730.0493586 4690.001034 673.8274772 2 
4810.808716 727.2164393 4690.234915 674.1691753 0 
4815.922515 724.8341596 4690.196745 674.1701176 2 
4844.943661 730.2367665 4690.193428 673.8977532 0 
4842.012284 724.1162699 4690.026485 673.753682 0 
4838.096221 716.9111576 4689.984724 673.8875126 0 
4835.847353 711.8997233 4689.948385 673.7958527 2 
4811.834444 702.1414947 4690.078044 674.0849484 0 
4809.940853 696.8290778 4690.162426 673.9995689 0 
4806.795517 693.1473404 4689.918744 673.9680325 0 
4805.2315 688.8654891 4689.88815 673.925161 0 
4804.852256 684.8315782 4690.072914 674.1145397 2 
4811.197848 681.8493988 4690.118222 674.044069 0 
4813.010556 677.8529458 4690.181582 674.1079096 0 
4811.002669 673.8799671 4690.153762 674.0871126 0 
4808.771462 670.9818061 4689.922061 673.9623151 0 
4807.060884 666.8344867 4690.211884 674.1064009 0 
4805.231827 663.8806281 4689.824433 674.213327 0 
4784.996117 661.9625835 4689.888488 674.0983728 2 
4782.044162 660.2114022 4689.962913 673.9920098 0 
4779.810801 656.8311343 4689.786079 674.0713574 0 
4778.93408 655.2176604 4689.929267 674.1867491 0 
4777.847627 651.8330293 4690.023862 673.8690893 0 
4776.064835 649.1959228 4690.081404 673.8757193 0 
4774.78041 647.0432883 4690.23212 673.7622366 0 
4773.173916 643.8065536 4690.225564 673.9200337 0 
4772.019137 641.8640517 4689.768407 673.8132989 0 
4770.825454 638.9813191 4690.055309 673.8862549 0 
4770.062453 637.0913875 4690.207612 674.2465334 0 
4768.059048 634.8868794 4690.183283 674.1566754 0 
4765.969909 631.9571443 4689.775765 673.7847442 2 
4732.903067 648.107169 4689.910463 673.9334766 2 
4731.900457 647.8925836 4689.945713 673.8243738 2 
4730.949137 645.9212768 4689.994407 674.2182743 0 
4730.035328 645.012814 4689.781573 674.1107824 0 
4729.244133 643.0868819 4690.247037 674.0565864 0 
4728.928269 642.2046497 4690.05312 674.2373173 0 
4727.841529 640.9864024 4690.143993 674.0614378 0 
4727.193547 639.1697573 4690.096182 673.8466137 0 
4726.026926 637.7566453 4690.03009 674.1773837 2 
4725.899229 636.2258034 4689.751757 674.0983661 2 
4769.89708 582.9961649 4690.06664 674.1824087 0 
4767.758979 579.0982137 4690.043191 673.7531119 0 
4765.935096 576.0402284 4690.059698 674.1133649 0 
4763.994878 571.8628181 4690.100682 674.0864071 0 
4762.09922 567.9946748 4689.897845 674.0427671 0 
4759.914432 564.2440268 4690.139381 674.1913585 0 
4757.750672 559.9194711 4690.118742 673.8999011 0 
4754.895275 556.1204996 4690.248267 674.0423548 0 
4710.866665 631.0649077 4689.974764 673.8756435 0 
4708.913121 631.7679546 4689.878755 674.0982169 0 
4707.058183 633.1884537 4689.961582 673.8030611 0 
4704.801272 633.812264 4690.139468 674.1504923 0 
4703.056939 635.7873131 4689.943259 674.2213709 0 
4701.78134 635.8326402 4690.162729 673.782012 0 
4700.002111 637.0314716 4689.931913 674.1473858 0 
4698.901971 637.9301803 4689.939741 674.0186358 0 
4697.245088 639.1645041 4690.144279 673.9082094 0 
4696.182459 639.7730347 4689.756426 673.9906418 0 
4695.211488 639.9680081 4690.043703 673.7627603 0 
4694.030272 640.9331712 4690.163253 673.8372109 0 
4692.970484 641.856512 4689.808582 674.0018242 2 
4691.939152 642.2213112 4690.033836 674.1912635 2 
4691.002783 642.2157494 4690.088649 674.154754 2 
4689.89593 641.7783899 4689.92339 673.8910177 0 
4688.192894 636.8176691 4690.049227 674.1253527 0 
4686.840704 635.0556534 4689.865995 673.8021923 0 
4685.773662 634.1596975 4689.814953 674.0539336 0 
4683.842869 630.2282052 4690.141144 674.063353 0 
4681.834717 627.1997263 4689.815177 674.0238695 0 
4680.171037 623.0990134 4689.965133 673.9238203 0 
4677.064763 617.8037823 4689.828574 674.2106924 0 
4673.832172 612.0019641 4689.85171 673.7750661 0 
4670.069633 606.1509373 4690.150419 674.1603372 2 
4560.956591 277.7664134 4690.212529 673.9802523 0 
4550.176111 283.7774821 4689.784186 673.7689796 2 
4478.755687 141.1753303 4690.082333 673.8404046 0 
4493.125057 256.1475097 4690.114274 674.0460941 2 
4482.996523 268.829407 4690.219914 673.8112859 0 
4558.883189 435.7984886 4689.771978 673.9653614 2 
4645.050453 599.8736885 4689.990428 673.870086 2 
4642.774626 601.8908464 4689.780423 673.9812165 0 
4640.90726 603.2429526 4690.211469 673.8333708 0 
4638.770435 604.2456546 4689.85235 673.776122 0 
4636.170985 605.1846829 4689.866527 674.0460415 2 
4602.082193 569.2308006 4689.842136 673.8287158 0 
4659.810208 641.8120499 4689.890002 673.9433968 2 
4659.860538 642.9119799 4690.158758 674.1609912 2 
4659.035668 642.8991857 4689.781077 674.0602941 2 
4657.040032 643.8115003 4689.791511 674.1972919 0 
4655.804453 643.7529793 4689.780663 673.8248877 0 
4655.248634 644.8830131 4689.85101 674.1696188 0 
4652.817696 645.9675363 4689.96566 674.1498886 0 
4651.948337 647.0577959 4690.228604 674.0085446 0 
4650.119846 647.868606 4690.201941 674.2303842 0 
4536.030586 576.1106996 4690.141375 673.8162544 0 
4528.759885 580.1724526 4690.126548 674.0499174 0 
4556.233953 601.1680591 4689.997209 673.7884059 2 
4560.171038 609.027872 4689.863294 674.1696722 0 
4566.160885 615.9643033 4690.089291 674.2285811 2 
4562.18184 618.8049513 4690.12847 673.8801766 2 
4562.112747 624.1070741 4690.138721 673.9825929 0 
4565.22568 630.0906626 4689.962977 674.0062661 0 
4567.951362 634.8543526 4690.07252 673.9612475 0 
4571.776805 639.949069 4689.761165 673.7607581 2 
4567.867128 643.0083742 4689.799164 673.7881664 0 
4562.786246 645.9124576 4690.207839 674.1971313 0 
4558.126761 649.0471297 4690.175712 674.0586007 0 
4552.102081 652.0541821 4690.188777 673.9648282 0 
4545.911256 656.0774985 4690.197421 673.8869364 0 
4551.918161 660.9103983 4690.143203 674.1195233 2 
4554.014751 665.965723 4689.830771 674.041556 0 
4556.164792 669.8419357 4690.052314 673.7819201 0 
3115.10031 148.1014782 3174.820086 147.1365562 0 
3114.763936 148.7779252 3175.083688 147.1406968 0 
3116.075055 151.0093999 3174.949297 146.9271359 0 
3118.813582 152.8880748 3175.141964 146.9748382 2 
3116.215573 155.0893852 3175.111775 146.8837344 0 
3113.249784 157.0049771 3174.753258 147.0145343 0 
3107.2207 159.8340286 3174.80609 147.1354922 0 
3099.925964 164.1084045 3175.167412 146.7762743 0 
3004.959883 191.2374987 3175.16283 146.9738184 2 
2991.765424 200.996518 3174.864515 147.0904787 0 
2994.755918 206.0638127 3174.767615 146.8194999 0 
2998.201887 211.1595787 3175.044338 147.1674607 0 
3000.998964 216.9061128 3174.801195 146.9987475 2 
2983.16109 229.8044529 3174.763282 147.1317901 0 
2595.888482 419.8193722 3175.017282 147.0644459 0 
2654.177777 412.9346945 3175.09072 146.8876592 0 
2751.922193 381.0035507 3175.111478 146.9376171 0 
2767.750069 389.2259929 3174.778096 146.7559866 0 
2771.039806 403.7957104 3174.825487 146.991693 0 
2586.205289 549.1198247 3174.909154 146.9542532 0 
2752.775937 453.9603489 3175.203001 147.1870274 0 
2772.014802 461.2162824 3175.068818 147.1532834 0 
3044.785655 254.8360998 3174.967729 147.2134312 1 
3026.020794 278.8084494 3174.85109 147.1929875 1 
2839.062 464.2125681 3174.880605 147.0620687 2 
