ply
format ascii 1.0
element vertex 947
property double x
property double y
property double x_origin
property double y_origin
property int lab
end_header
3817.120892 802.7935772 4019.864204 848.0570726 0 
3797.951935 812.8246267 4020.131721 848.0003783 0 
3787.073863 819.1966848 4019.785512 848.1967476 0 
3764.015042 824.1057646 4019.823727 848.202908 0 
3767.843485 832.2326532 4019.957056 847.8848371 0 
3769.973584 840.2343395 4020.020178 847.8479324 0 
2081.960401 2452.901283 2130.753299 2451.779345 2 
2009.002661 2456.113482 2130.755818 2451.873553 2 
2003.15706 2460.870022 2131.180626 2451.858995 2 
1786.944648 2485.062346 2131.109373 2451.768512 0 
1712.009031 2506.144885 2131.215259 2451.774074 0 
1732.00065 2515.788986 2131.226982 2452.094135 1 
1690.771639 2536.934037 2131.228972 2451.995224 2 
2013.918377 2478.99915 2131.093156 2452.128777 2 
2014.150433 2482.096455 2131.158122 2451.903094 2 
2015.959937 2486.16394 2131.026647 2451.866997 0 
2057.783961 2475.957273 2130.975992 2451.978609 2 
2058.769619 2478.835365 2130.997121 2452.02865 0 
2060.23025 2480.96238 2131.052724 2451.9809 0 
2061.001366 2483.029706 2130.825035 2452.023006 0 
2062.213743 2484.804007 2130.76823 2451.88212 0 
2063.053157 2487.111386 2130.760897 2451.95359 0 
2063.957841 2489.169019 2131.106684 2452.167778 0 
2066.082958 2490.883331 2130.784775 2452.11692 0 
2067.090604 2493.010767 2130.845529 2452.110223 0 
2069.096133 2494.09265 2130.888873 2452.076383 2 
1734.80503 2741.191597 2130.807283 2452.056397 2 
1861.971303 2661.882318 2130.829403 2451.935046 0 
1882.936324 2656.847632 2131.067165 2452.239481 0 
1899.209018 2658.078062 2130.943071 2451.916859 0 
1909.997081 2660.799754 2130.834638 2451.83004 0 
1913.933085 2668.869413 2131.196959 2451.773689 0 
1920.130181 2676.792488 2131.133912 2451.976313 2 
1999.135138 2602.772785 2130.802696 2452.190169 0 
2013.214382 2594.859979 2130.996566 2451.935685 0 
2025.992297 2588.075968 2131.120731 2452.178622 0 
2036.173601 2581.937896 2131.168102 2452.132619 2 
2037.765958 2587.861173 2130.799479 2452.013039 0 
2040.910927 2593.884116 2131.093079 2452.094013 0 
2046.00353 2597.040038 2131.117702 2451.88371 2 
2048.082527 2602.001614 2131.110024 2451.967665 0 
2051.024399 2608.16272 2130.907834 2451.988781 0 
1983.772699 2764.1544 2131.174466 2452.014997 0 
1990.980368 2777.045196 2130.943618 2451.903969 0 
1998.233092 2786.861721 2130.786588 2452.249051 2 
2001.972894 2810.836067 2131.01209 2452.133821 0 
2062.970183 2661.855169 2130.977834 2452.223713 0 
2071.145207 2657.845535 2130.857423 2451.977734 0 
2089.097149 2616.217447 2131.195399 2451.871548 0 
2095.130167 2612.853233 2131.110328 2452.152866 2 
2098.757632 2619.034794 2130.917863 2451.988 2 
2095.82999 2669.111481 2131.141969 2451.813082 0 
2104.223201 2667.178557 2130.812133 2451.946095 0 
2110.764624 2663.074223 2130.829916 2451.984807 0 
2118.179392 2660.05775 2130.958519 2452.074599 0 
2124.153285 2656.065942 2130.802333 2452.000434 0 
2131.033389 2662.247732 2131.121982 2451.913555 0 
2139.850965 2753.98231 2130.816421 2451.858597 0 
2150.767104 2773.984284 2131.096597 2451.847094 0 
2158.845765 2747.988566 2130.910176 2451.818966 0 
2169.917124 2763.972309 2131.015061 2451.931747 0 
2178.796532 2760.094977 2131.166554 2452.225924 0 
2179.902727 2710.875073 2131.050524 2451.806012 2 
2162.191016 2592.102857 2131.056446 2451.974404 0 
2166.100589 2589.928428 2131.137959 2452.201553 0 
2170.160738 2588.204381 2130.81015 2452.177842 0 
2173.938665 2586.156748 2130.774936 2452.034429 0 
2177.895314 2582.935112 2131.103395 2452.062438 0 
2182.157422 2580.868456 2131.244185 2452.203954 0 
2186.213433 2579.16074 2131.179879 2451.866159 0 
2188.785813 2577.980402 2130.922171 2452.226829 0 
2192.833259 2575.228617 2130.951233 2452.183848 0 
2196.907045 2572.839192 2131.135401 2451.817783 0 
2200.793573 2571.195552 2131.245625 2451.982238 0 
2204.102299 2568.77056 2130.766667 2452.247614 2 
2485.955673 2974.120062 2131.060051 2451.863095 0 
2616.238518 3120.054237 2130.817049 2452.201951 0 
2197.964976 2539.246927 2130.81811 2452.000789 0 
2195.97733 2531.990282 2130.977618 2452.060589 2 
2198.968899 2531.178851 2130.994437 2452.125944 0 
2201.768043 2528.879838 2131.193726 2451.811616 0 
2204.825389 2527.189351 2131.043853 2452.177689 0 
2208.209911 2526.06052 2131.175302 2451.915584 2 
2471.930582 2753.985354 2131.028679 2451.919101 2 
2467.789591 2731.095727 2130.871052 2452.004567 0 
2231.092655 2530.939162 2130.755356 2451.819984 1 
2234.179444 2526.982974 2131.130573 2451.898342 1 
2234.911825 2523.87501 2130.774286 2451.929868 1 
2286.004848 2551.218012 2130.991483 2452.080237 2 
2291.157363 2546.785337 2131.007926 2452.117275 0 
2296.095857 2542.933228 2130.782859 2451.776439 0 
2300.168582 2539.061538 2130.94554 2452.208172 2 
2224.907265 2497.066592 2130.962739 2452.24992 0 
2222.755754 2491.968096 2130.819904 2452.185198 0 
2221.20107 2488.200477 2130.83354 2451.862895 0 
2217.825487 2483.857826 2131.042762 2452.080335 0 
2215.825838 2479.784246 2130.910572 2452.233202 0 
2214.819583 2477.168497 2131.100477 2452.16544 0 
2212.851725 2474.133336 2131.191879 2451.770307 0 
2210.944873 2469.887419 2131.22848 2452.102139 0 
2209.204011 2466.941219 2131.102058 2452.209765 0 
2208.159314 2465.171962 2131.144962 2452.110384 0 
2207.12244 2462.228502 2131.223279 2452.197927 0 
2204.836328 2459.016041 2131.028261 2451.912167 0 
2204.050287 2457.188833 2130.895369 2452.11987 0 
2203.10733 2455.245845 2131.03531 2452.209056 0 
2201.129181 2451.977188 2131.229363 2451.824054 0 
2200.114607 2450.207843 2131.176193 2452.068618 0 
2198.899062 2448.028251 2131.028383 2451.808376 0 
2197.950214 2445.923345 2131.16876 2451.822654 0 
2196.901847 2444.142039 2130.77058 2451.988175 0 
2195.908081 2442.048842 2131.150342 2452.208368 0 
2194.987675 2439.795711 2131.078238 2451.845005 0 
2193.791556 2437.863548 2130.804061 2452.170737 0 
2193.090736 2436.783424 2131.244791 2451.955344 0 
2192.241267 2435.170984 2130.773962 2451.890329 0 
2190.949236 2433.052344 2130.948705 2452.14945 0 
2190.225689 2430.867465 2131.222103 2451.877536 0 
2188.759505 2429.242684 2131.115711 2451.917586 0 
2188.041525 2428.016053 2130.875954 2451.7792 0 
2187.061764 2426.204192 2130.874206 2452.10332 0 
2185.81774 2423.928267 2131.024057 2452.158476 0 
2184.961691 2422.018848 2130.86382 2451.952958 0 
2184.939832 2420.887782 2131.093287 2452.139068 0 
2184.190126 2418.791992 2131.038517 2452.165815 0 
2182.909457 2417.010621 2130.793351 2451.918962 0 
2181.003304 2415.159062 2131.086548 2451.79483 0 
2180.925116 2414.212502 2130.82403 2452.23688 0 
2180.166694 2411.948236 2131.090199 2452.234434 0 
2179.126502 2409.864256 2131.14291 2451.838193 0 
2178.133104 2407.75673 2131.041151 2451.822936 0 
2176.894512 2406.884438 2131.212004 2451.834638 0 
2175.92643 2405.000521 2130.750453 2452.085887 0 
2174.761142 2402.793804 2130.754849 2452.014446 0 
2174.202867 2401.091397 2131.059276 2451.877983 0 
2172.053899 2398.133306 2130.864862 2451.970593 0 
2170.831542 2396.205061 2130.955027 2452.208044 0 
2169.819317 2393.847937 2130.796237 2452.202421 0 
2168.854668 2392.087388 2130.775356 2451.99918 0 
2168.221826 2390.23736 2131.083818 2451.898256 0 
2165.987881 2387.084271 2131.234143 2451.999023 0 
2165.128076 2385.238993 2130.763469 2452.080943 2 
2225.08039 2251.072745 2131.208925 2451.884289 0 
2214.956051 2256.823787 2131.104882 2452.037593 2 
2204.778849 2262.809909 2130.995637 2451.848166 0 
2198.907846 2262.041874 2130.800586 2452.012514 2 
2187.879262 2273.825942 2130.761693 2451.851088 0 
2180.813302 2279.095511 2130.999344 2452.051184 0 
2173.929782 2282.983488 2130.800206 2451.807858 0 
2166.972481 2287.813676 2131.1388 2451.80287 0 
2161.136421 2293.097725 2130.937159 2451.842472 2 
2156.171513 2291.792041 2131.130064 2452.200362 0 
2149.85195 2295.875701 2130.798527 2452.009797 0 
2145.167575 2298.849113 2130.77231 2451.796836 2 
2140.925056 2294.784004 2130.897925 2451.988358 0 
2136.129515 2288.147269 2130.789542 2451.809297 0 
2130.880757 2279.839748 2130.867154 2452.103237 0 
2124.903424 2269.755955 2131.156108 2451.789844 0 
2119.10368 2260.843267 2130.882316 2452.025193 0 
2108.885309 2224.76238 2130.975555 2451.987259 0 
2097.888081 2193.024082 2131.247056 2451.805655 2 
2091.123195 2204.769366 2130.852492 2451.798251 0 
2083.80337 2206.000417 2131.036609 2452.182884 0 
2074.897686 2205.076151 2131.242181 2452.028443 2 
2069.1659 2211.859335 2130.88168 2451.819323 2 
2065.86529 2229.787788 2130.859168 2452.21897 1 
2056.881055 2225.991484 2130.994163 2452.016364 1 
2069.003864 2282.219718 2130.753623 2452.141945 0 
2064.9938 2284.750679 2131.1976 2451.866995 2 
2053.770045 2274.800092 2130.915246 2451.823415 2 
2049.050509 2278.201856 2130.756299 2452.198195 2 
2003.028007 2203.24848 2130.976637 2451.943907 2 
1991.857815 2199.108317 2131.01323 2451.973105 0 
1979.146105 2197.122398 2130.942076 2451.777161 1 
1976.863881 2211.186239 2131.043525 2452.117745 1 
1974.155957 2221.047148 2131.00969 2451.899757 1 
1940.047827 2188.95729 2131.016752 2452.067873 1 
1949.007382 2218.181999 2131.141287 2451.807891 0 
1943.133855 2225.147586 2130.756086 2451.911862 0 
1896.146066 2185.982723 2131.105768 2451.753881 2 
1711.841041 2005.868998 2130.976987 2452.237146 0 
1622.241396 1942.169063 2130.764307 2451.855278 0 
1716.105302 2062.057831 2131.223023 2452.011259 0 
1686.85498 2060.982713 2131.161017 2452.152807 2 
1718.190003 2110.927769 2130.970679 2451.947386 0 
1717.859768 2131.861967 2131.005277 2452.243623 2 
1877.759553 2269.011363 2130.905484 2452.155619 2 
1874.244086 2277.761253 2131.159501 2451.835127 2 
1866.880251 2283.886487 2130.822273 2451.871647 0 
1846.80555 2284.836579 2130.976925 2452.160852 0 
1860.144411 2303.949948 2130.922112 2452.24939 0 
1888.182661 2328.833129 2131.152197 2452.122664 0 
1896.010898 2341.872877 2130.820049 2452.120666 0 
2090.984844 2436.075326 2131.114289 2451.994397 2 
2090.836689 2436.769773 2130.900016 2451.830775 2 
2090.781026 2437.809516 2130.915901 2451.911277 2 
2090.946004 2439.988174 2131.032924 2452.001554 0 
2091.074753 2440.759849 2130.912406 2451.969164 0 
2091.959797 2443.084518 2130.968554 2451.892457 0 
2095.167647 2444.870752 2130.765121 2451.928545 2 
2094.993629 2445.83517 2130.799211 2452.228472 2 
2093.160496 2447.1635 2130.972869 2452.247185 0 
2091.183273 2448.122885 2130.82796 2452.214299 0 
2089.182401 2448.993862 2130.875576 2451.878405 0 
2087.232036 2450.1585 2131.129959 2452.056789 0 
2085.168349 2450.792365 2130.775953 2451.878146 0 
1520.126883 1253.994507 2077.020603 1235.04453 0 
1992.115259 1244.035724 2077.223075 1234.858887 2 
1998.120894 1245.772286 2076.837359 1235.03139 0 
2008.185786 1247.060228 2077.028576 1235.119059 0 
2018.933113 1247.106536 2077.083358 1234.865514 2 
2019.850398 1248.208934 2076.993918 1234.832434 2 
2019.117434 1249.873877 2077.139223 1235.035783 0 
2018.916242 1252.165175 2077.163928 1234.793125 0 
2018.909683 1253.934531 2077.087656 1234.774941 0 
2018.220255 1256.060731 2076.883829 1235.091148 0 
2018.083017 1258.971188 2076.872539 1235.018802 0 
2017.781417 1261.151114 2076.887861 1234.964529 0 
2018.00765 1263.221218 2077.080043 1235.108048 0 
2017.180152 1265.823961 2077.190482 1235.047585 0 
2016.947838 1268.079704 2076.833368 1235.11408 0 
2017.99488 1270.247297 2077.157206 1235.154562 2 
2011.931828 1275.994861 2077.179504 1234.902083 0 
2014.805592 1277.813333 2077.243231 1235.138608 2 
2015.034521 1279.86577 2076.907411 1235.065938 2 
2018.766884 1281.045271 2076.780467 1235.024534 0 
2022.01649 1281.11051 2076.882583 1234.946641 0 
2026.184471 1279.823064 2077.244227 1234.88231 2 
2026.152768 1282.827595 2077.24639 1234.897648 2 
2023.824892 1288.153596 2076.80221 1235.00672 0 
2023.898457 1295.231714 2077.158803 1234.954049 2 
2012.795047 1313.152034 2076.842657 1235.079568 0 
2017.767804 1312.000068 2076.895506 1234.784688 2 
2016.795339 1316.925973 2077.059222 1235.061828 0 
2016.786483 1323.191805 2076.75847 1235.220954 0 
2016.764869 1328.752697 2076.853264 1235.167637 0 
2015.830292 1336.849654 2076.815285 1234.905184 0 
2015.753249 1344.867496 2077.161903 1234.901706 0 
2016.84921 1352.070706 2077.105755 1234.894257 2 
2007.97274 1381.198412 2077.223825 1234.990543 0 
2014.948479 1377.869331 2077.025231 1234.993818 2 
2015.045303 1389.834454 2076.805647 1235.081786 0 
2015.776259 1402.814117 2077.05274 1234.791128 2 
2019.816813 1412.156004 2077.208765 1234.897105 0 
2022.755658 1418.77405 2077.052289 1234.758907 0 
2019.891546 1454.964192 2076.910613 1234.990756 0 
2025.784898 1463.766368 2077.135013 1235.007638 0 
2032.21478 1473.108839 2077.248181 1234.91326 2 
2032.228169 1517.023413 2077.157078 1235.023472 2 
2039.107866 1536.212725 2076.855258 1235.134125 2 
2047.776842 1543.157999 2077.175252 1234.843655 2 
2054.064002 1590.134017 2076.99076 1235.06966 2 
2065.158068 1606.793048 2077.078567 1234.799614 2 
2077.00724 1659.239181 2077.04037 1235.042138 0 
2089.755549 1656.925384 2076.799776 1235.220329 0 
2103.784222 1673.797957 2076.883588 1234.762391 0 
2129.07137 1789.790666 2077.035864 1234.929236 0 
2145.753391 1781.141122 2076.813361 1234.780233 0 
2166.049121 1799.238613 2076.873888 1234.863123 0 
2195.122631 1854.114648 2077.182783 1235.030698 0 
2229.157696 1916.011351 2077.080312 1234.914937 2 
2414.000531 2547.870682 2077.207075 1235.00608 0 
2157.046066 1509.756851 2076.976409 1235.080288 0 
2155.804809 1479.109997 2077.09268 1235.126179 0 
2152.150664 1444.878543 2076.805415 1235.154055 2 
2115.769666 1333.868776 2077.184288 1235.068787 0 
2115.857389 1324.808176 2077.18191 1235.23002 0 
2116.172823 1318.114693 2077.010718 1235.08052 0 
2116.876044 1313.841031 2077.245456 1235.126575 2 
2118.961713 1314.202531 2076.882655 1234.757779 2 
2123.209382 1315.109064 2077.088067 1234.764191 0 
2126.969062 1314.930747 2077.14037 1234.869725 0 
2130.05929 1315.195785 2076.773781 1235.078956 0 
2133.814561 1315.208069 2076.897742 1234.92195 0 
2137.766245 1314.829652 2076.90197 1235.189068 0 
2142.194346 1315.162688 2077.019588 1234.820389 0 
2143.753719 1311.015044 2077.196965 1234.965432 0 
2143.967575 1306.82962 2076.973211 1234.926957 0 
2145.188684 1302.811278 2076.941148 1234.907745 0 
2144.992025 1298.831517 2077.027471 1234.801315 0 
2144.777302 1295.051251 2077.130271 1234.841862 0 
2145.00932 1291.778013 2077.013812 1235.025565 0 
2144.857666 1288.165782 2076.964633 1234.802011 0 
2146.078471 1286.23422 2076.872401 1235.08219 2 
2151.999264 1286.819365 2076.797622 1235.216838 0 
2156.898985 1287.020832 2076.893795 1234.837669 0 
2163.08211 1287.084943 2076.995414 1234.824135 0 
2169.16646 1286.772884 2076.87545 1235.193762 0 
2175.074136 1285.755721 2076.785624 1234.833456 2 
2141.783734 1266.049436 2077.109021 1234.8914 2 
2141.965219 1263.823653 2076.943411 1234.79369 2 
2142.807873 1262.065812 2077.125879 1235.057137 0 
2143.135177 1259.173501 2077.023975 1234.784162 0 
2143.944333 1257.16777 2076.87183 1234.776444 0 
2144.002713 1255.117244 2076.850579 1234.919173 0 
2142.140129 1251.976029 2076.862935 1234.964265 2 
2141.98175 1249.898559 2077.04772 1235.015484 2 
2142.197996 1247.906741 2077.156884 1234.913215 0 
2141.980394 1245.850296 2076.956904 1235.038268 0 
2143.166108 1243.832783 2076.845405 1235.051285 0 
2142.756284 1242.11938 2077.085447 1234.950617 0 
2143.037151 1240.207277 2076.977061 1234.789864 0 
2144.074521 1238.07764 2076.959037 1234.96465 0 
2143.803668 1235.071972 2077.178915 1235.035418 0 
2144.220532 1232.976635 2076.800903 1235.168528 0 
2145.133376 1229.207787 2076.831742 1234.86377 2 
2144.808082 1227.038646 2077.152038 1235.22419 2 
2235.12143 1210.247442 2077.025475 1235.127714 0 
2235.116822 1204.860921 2076.828331 1234.903973 0 
2235.818198 1200.055392 2076.943837 1235.14272 0 
2236.883032 1194.152874 2076.85737 1234.9367 0 
2186.974846 1202.786284 2077.222119 1234.945378 2 
2178.012919 1201.773021 2076.863906 1234.896295 0 
2171.230808 1200.945648 2077.010065 1234.788891 0 
2160.234295 1202.912103 2076.763081 1235.105724 0 
2153.909546 1202.038555 2076.983438 1234.776368 0 
2152.149477 1200.06177 2076.930341 1235.217675 0 
2151.867162 1197.124178 2077.110395 1235.000194 0 
2153.027052 1194.217764 2077.186894 1234.751898 0 
2152.754048 1191.159013 2076.947276 1235.016968 0 
2154.182034 1187.061182 2077.163263 1235.162842 0 
2154.756831 1182.923328 2077.201732 1235.241125 0 
2160.085431 1175.214813 2077.09685 1235.244977 0 
2162.003368 1169.830288 2076.771345 1234.902845 2 
2166.142058 1161.951686 2076.87052 1234.75922 0 
2202.825863 1124.230915 2077.009414 1235.102915 0 
2200.198679 1118.946308 2077.104813 1235.202727 0 
2197.85532 1114.80209 2076.969695 1234.787354 0 
2195.113272 1108.882958 2077.200196 1235.120103 0 
2364.056286 910.1519286 2077.111228 1234.891717 2 
2326.116742 933.9580778 2076.886694 1234.87011 0 
2307.038366 938.9080392 2077.022955 1234.930424 0 
2205.109725 1059.143475 2076.939644 1235.185588 0 
2191.124389 1066.199058 2077.038503 1235.073068 0 
2180.895365 1069.893316 2077.025796 1235.000686 0 
2170.945406 1075.245491 2077.03804 1234.808678 0 
2161.878448 1078.988236 2077.178781 1235.184735 0 
2153.890165 1084.040009 2076.826452 1234.756906 2 
2150.248086 1080.963146 2076.877016 1235.036452 0 
2147.121186 1074.149971 2077.216877 1234.980911 0 
2143.043446 1066.906521 2076.916499 1234.917835 0 
2150.855578 1029.205002 2077.240904 1235.000944 2 
2157.848319 986.0166992 2076.751629 1235.043725 0 
2153.01219 973.0396695 2077.102403 1235.140638 0 
2147.777906 960.0311831 2077.075373 1234.918071 2 
2165.821192 837.1518248 2076.924977 1234.819278 0 
2147.864971 863.0519934 2077.10573 1235.236157 2 
2137.951964 846.072607 2076.967067 1235.24541 2 
2129.229128 823.133566 2076.913246 1234.834706 0 
2128.088568 698.9041492 2077.085649 1235.186887 2 
2105.170848 785.0872789 2076.980611 1234.933038 0 
2092.876948 711.833014 2076.823676 1234.904854 2 
2077.114197 718.149049 2077.072925 1235.185389 0 
2056.050874 581.2479021 2076.754667 1235.165845 2 
2037.049895 591.1103971 2077.152002 1234.75186 0 
2052.933004 980.8690689 2077.24727 1234.912132 2 
2053.752635 1051.910516 2076.996838 1235.091203 2 
2053.064665 1082.832487 2077.02809 1234.985513 2 
2048.169766 1085.758701 2077.168551 1234.796714 0 
2043.841715 1088.242228 2076.951569 1235.205912 0 
2049.141277 1125.774494 2077.141301 1234.94215 2 
2044.772396 1128.145968 2076.857995 1235.072291 0 
2042.006365 1128.759997 2077.074151 1235.189369 0 
2038.879066 1131.071421 2076.851501 1234.881701 0 
2036.231937 1132.098338 2077.222904 1235.046602 0 
2032.180825 1134.000994 2076.782115 1235.100591 0 
2030.009695 1135.200666 2077.147306 1235.10141 0 
2026.192894 1136.848874 2077.057323 1235.08417 0 
2022.873368 1137.948624 2076.776321 1234.895764 0 
2019.844591 1139.884316 2077.218055 1235.100956 2 
2007.894313 1127.042206 2077.040325 1235.023378 0 
2004.863627 1129.141826 2077.155079 1234.845564 0 
2021.990164 1161.127983 2077.142166 1234.92099 0 
2028.878976 1175.174281 2076.771581 1235.138671 0 
2034.124947 1185.168887 2076.990081 1235.067841 0 
2036.767761 1190.797404 2076.902011 1234.891129 0 
2039.996027 1196.928332 2077.036893 1235.090619 0 
2043.062648 1202.004948 2076.941575 1235.206961 2 
2042.797153 1203.2319 2076.980339 1234.91078 2 
2040.123726 1203.885418 2077.006344 1234.86389 0 
2038.7634 1203.89851 2077.03488 1234.892376 0 
2037.82279 1205.056461 2076.781047 1235.197737 0 
2035.975348 1206.021128 2077.015578 1234.993109 0 
2034.068532 1207.167589 2077.134239 1234.814559 0 
2032.845922 1206.921132 2077.155178 1235.158569 0 
2031.176079 1207.846752 2077.11553 1235.223233 0 
2028.828652 1208.845869 2076.884013 1235.202378 0 
2027.981287 1210.140357 2076.816269 1234.994687 0 
2025.788867 1211.101149 2077.137064 1234.861657 0 
2023.90761 1212.168111 2076.809394 1235.132959 0 
2020.939239 1213.074972 2076.876068 1234.757771 0 
2017.992562 1214.760307 2076.82233 1235.088483 2 
2017.931438 1216.227508 2076.997053 1234.857517 2 
1855.82426 1170.862583 2076.83075 1234.902912 2 
1968.958452 1207.964763 2076.855291 1235.189739 2 
1969.855121 1211.92156 2076.934426 1234.893987 0 
1970.772709 1214.821489 2077.005644 1234.930319 0 
1975.2396 1219.065039 2076.813278 1234.92884 2 
1969.890011 1221.939345 2076.936611 1235.132573 0 
1963.949652 1225.008941 2076.971057 1235.13109 0 
1957.986449 1228.218109 2077.238608 1235.060709 0 
1951.830692 1230.819358 2077.213621 1235.039144 0 
3632.034121 1447.818912 3962.978883 1447.139242 0 
3543.990471 1461.163309 3962.783229 1447.01318 0 
3516.234799 1476.038874 3963.193499 1447.224399 2 
3313.853912 1509.756776 3962.903238 1446.993923 0 
3335.946122 1528.089849 3962.876497 1447.145774 1 
3335.84879 1548.097553 3963.026864 1447.085239 1 
3324.065663 1570.015472 3962.895947 1447.146355 0 
3338.08483 1587.859568 3962.935499 1446.868951 0 
3343.928479 1607.164383 3962.758193 1447.168951 0 
3360.077692 1623.791422 3962.93213 1447.06249 0 
3329.080296 1653.875629 3963.036889 1447.184208 0 
3108.882405 1756.190127 3962.928131 1447.078527 0 
2950.029977 1850.054628 3962.974301 1447.128766 0 
3767.902181 1531.751165 3962.964005 1447.217844 2 
3840.016636 1506.109952 3963.114199 1446.851466 2 
3841.21952 1509.799698 3962.970417 1446.897999 0 
3843.214081 1513.97861 3962.81695 1447.041772 0 
3844.020032 1516.99908 3962.854262 1446.850327 0 
3846.124709 1521.141151 3962.784535 1446.757114 0 
3848.081279 1524.962666 3963.085641 1446.861255 0 
3850.767294 1528.809942 3963.240022 1446.919475 2 
3817.811107 1558.954027 3962.887319 1447.077743 0 
3820.813979 1563.751518 3963.179209 1446.783499 2 
3650.801216 1722.899626 3962.931498 1446.765296 0 
3713.128236 1682.998448 3963.057068 1446.898267 2 
3735.247528 1676.161331 3962.998594 1447.122237 0 
3731.052482 1694.033129 3963.129351 1446.88376 0 
3751.245796 1687.964993 3962.995015 1446.76309 2 
3755.024935 1699.985037 3962.932566 1447.086042 0 
3757.189064 1712.069885 3962.913785 1446.753042 0 
3799.071402 1672.842995 3962.786541 1447.122618 0 
3807.992621 1675.968039 3963.137914 1446.870857 0 
3816.216487 1678.944982 3963.019124 1447.214015 0 
3857.856313 1623.767718 3963.086252 1447.158795 0 
3864.050848 1626.965603 3962.792555 1447.046643 0 
3831.180596 1707.03757 3963.059733 1446.955531 2 
3877.772608 1627.242299 3962.791573 1447.211671 0 
3884.062183 1627.955358 3963.214714 1446.883586 2 
3887.048353 1636.751254 3962.756203 1446.790974 0 
3892.969293 1640.144117 3962.911831 1446.93578 2 
3893.8391 1660.180955 3962.899794 1446.945412 2 
3901.198673 1659.236046 3962.854207 1446.99952 2 
3895.951649 1707.896762 3962.796164 1446.882245 2 
3901.184333 1722.105897 3963.087776 1447.20694 0 
3908.098196 1736.129349 3963.168611 1446.910379 0 
3908.834708 1789.133325 3963.043965 1447.133061 0 
3917.134579 1806.050168 3963.174035 1446.853872 0 
3913.944285 1963.835866 3963.039652 1447.033385 0 
3917.76682 2165.189447 3963.228797 1447.215493 2 
3940.175492 2175.833004 3962.965014 1446.877142 0 
3962.979766 2081.011177 3963.009387 1446.914099 1 
4051.867074 4225.847163 3962.871039 1447.21527 0 
4161.226512 4566.78965 3962.875649 1446.811219 2 
4066.172975 2529.169614 3963.19428 1447.057554 1 
4098.969782 2521.118315 3963.161426 1447.164067 1 
4090.204181 2245.951079 3962.947452 1447.221001 0 
4127.890525 2310.926249 3963.186494 1446.816018 0 
4168.009254 2362.901508 3962.943159 1447.23902 2 
4203.162685 2384.202546 3962.903119 1446.779759 2 
4282.799708 2548.024158 3963.245029 1446.77622 0 
4315.063808 2530.870678 3962.83744 1446.986783 0 
4182.790292 2059.78172 3962.794337 1447.010074 0 
4201.150035 2050.205764 3962.924141 1447.104215 0 
4220.906842 2044.121593 3963.075216 1447.047367 0 
4106.797842 1753.011711 3963.113385 1447.057096 0 
4115.163218 1746.806544 3963.046116 1447.075903 0 
4124.75909 1744.199235 3963.105662 1446.808798 0 
4135.973393 1741.100691 3962.835018 1446.787201 0 
4382.221369 2107.922458 3963.023984 1446.761661 0 
4338.954178 2001.068321 3963.021734 1446.854213 2 
4339.024085 1966.195875 3963.208428 1447.180927 0 
4357.067468 1956.033645 3962.978294 1447.11531 0 
4775.795355 2429.841679 3962.922406 1447.208573 0 
4722.898223 2310.218521 3963.034476 1446.907313 2 
4255.167756 1757.890138 3962.966111 1446.891149 0 
4234.240829 1718.051129 3962.92835 1447.212198 0 
4238.223587 1706.202334 3963.223858 1446.927765 0 
4249.020655 1699.995593 3963.031977 1446.79474 0 
4159.941468 1609.990406 3963.225668 1446.758936 0 
4160.77405 1600.953962 3963.124246 1446.819405 2 
4173.045641 1600.796651 3962.777979 1447.193864 2 
4227.765173 1628.062455 3962.851177 1447.182929 2 
4427.202593 1702.067287 3962.824078 1447.193421 0 
4439.868416 1691.002428 3963.155619 1446.842003 0 
4504.954762 1703.129477 3963.019768 1447.225417 2 
4310.87507 1597.801746 3962.770157 1447.066537 2 
4321.042151 1589.245825 3963.075473 1447.066201 2 
4297.949787 1567.949718 3963.135607 1447.245428 0 
4306.99637 1559.163585 3963.189292 1447.011542 0 
4367.97604 1564.790469 3962.944471 1446.928633 0 
4319.107757 1539.018549 3962.872054 1447.226173 0 
4323.770976 1527.777673 3962.818176 1446.975738 0 
4444.15715 1539.087944 3962.951155 1446.78222 0 
4385.13969 1513.971312 3963.098757 1446.931841 2 
4389.967137 1500.92423 3963.248042 1447.166925 0 
4244.123949 1474.133649 3963.162353 1446.870318 0 
4242.047234 1465.101645 3963.131861 1446.773274 2 
4397.142115 1460.826332 3962.951907 1446.999871 0 
4536.09488 1447.073961 3962.976044 1447.115856 0 
4504.101634 1430.044221 3962.841594 1447.008785 0 
4308.882165 1426.042749 3963.041005 1446.771855 0 
4275.764061 1417.889762 3962.953696 1446.981199 2 
4274.063993 1407.951739 3962.898123 1446.937942 0 
4298.835388 1393.810476 3963.05826 1447.132622 0 
4321.162121 1378.940121 3963.155897 1447.054236 2 
4290.016452 1373.857804 3962.804107 1446.861332 0 
4286.181765 1365.030151 3963.227189 1447.033399 0 
4280.824372 1354.818783 3962.792184 1446.956537 0 
4292.111532 1341.083189 3962.978392 1447.125593 0 
4604.222951 1217.182088 3962.856792 1447.036944 0 
4424.883827 1264.004915 3963.224885 1446.969215 0 
4282.065391 1309.033145 3962.851837 1446.977512 2 
4275.223266 1299.757733 3962.781748 1446.989718 0 
4240.865537 1305.835855 3963.101051 1446.797302 0 
4236.116007 1297.078239 3963.080701 1447.190379 0 
4260.147022 1272.122885 3962.896916 1447.008554 0 
4254.956074 1262.125308 3962.884147 1446.929025 0 
4249.057396 1252.990939 3963.215969 1447.191223 2 
4270.245854 1224.190854 3962.910438 1447.061245 0 
4356.973999 1142.012275 3962.788758 1446.947265 0 
4231.020008 1224.820506 3963.186983 1447.135545 2 
4224.906361 1217.038034 3963.182847 1446.772368 0 
4218.866273 1206.013548 3963.212747 1446.763295 0 
4213.886432 1195.859663 3963.02185 1447.092506 0 
4235.234972 1157.155997 3962.771531 1447.042368 0 
4211.896936 1164.237499 3962.983591 1446.892791 2 
4196.178353 1165.144029 3963.204036 1446.902352 2 
4189.906304 1154.242794 3963.099617 1447.176313 0 
4183.8133 1142.036601 3963.061858 1446.969661 0 
4190.824634 1110.994705 3962.99203 1446.940908 0 
4169.758252 1121.954777 3962.954203 1446.894685 2 
4163.06444 1109.226053 3963.237191 1447.049412 0 
4156.13205 1095.758721 3962.84178 1446.778986 0 
4154.24622 1072.075371 3962.921777 1447.174573 0 
4133.969401 1082.875813 3962.826925 1447.125705 0 
4102.868607 1123.176543 3963.052018 1446.931907 0 
4092.963143 1117.863876 3963.151568 1447.037778 2 
4112.108581 1031.893598 3963.228685 1447.116833 0 
4086.098375 1067.932888 3962.761518 1446.912815 0 
4073.908941 1066.248708 3963.212227 1446.790991 0 
4084.757429 969.8040071 3962.819977 1446.753649 0 
4073.129378 953.9917539 3963.178222 1446.848779 0 
4063.117567 920.7551478 3963.224484 1447.236174 0 
4029.181691 1033.026502 3962.918081 1446.894834 0 
4028.140378 932.819649 3963.182612 1446.998959 2 
3982.963247 1228.161297 3962.865792 1446.811622 1 
3975.844186 1228.87731 3962.974437 1447.003127 1 
3969.876018 1224.936664 3963.044117 1446.883447 1 
3962.990671 1030.114094 3962.887096 1446.87005 0 
3940.855848 748.815319 3962.968829 1447.223415 0 
3919.820467 759.9433135 3963.209589 1446.752157 2 
3913.219816 919.87767 3962.896991 1447.110194 0 
3879.947319 788.829603 3962.859153 1447.160566 0 
3860.2409 799.9749452 3963.222188 1446.835086 0 
3837.102255 785.9466248 3963.088213 1447.228273 0 
3819.133289 801.8823301 3962.86172 1446.87396 0 
3800.246425 811.9988162 3962.99401 1446.852273 0 
3782.064135 822.2128392 3962.825688 1447.134602 2 
3769.906153 851.7852774 3963.136759 1446.875969 0 
3751.912947 861.7837505 3963.236163 1447.110266 0 
3740.863353 884.8453163 3963.020832 1446.854254 0 
3713.070261 867.9930199 3962.93934 1446.922516 0 
3518.189645 635.7775523 3962.900789 1447.072934 0 
3472.909882 619.0125086 3963.196894 1446.906307 1 
3462.761325 658.9409043 3963.00858 1447.07546 1 
3265.903744 419.0842682 3962.960062 1447.059896 0 
3178.119546 364.8468213 3963.185865 1446.782493 0 
3106.880572 342.1720281 3963.142759 1446.993925 0 
3021.767344 306.9135917 3963.098179 1447.087606 1 
3649.156612 1112.787519 3962.760122 1447.096256 2 
3657.815071 1142.910911 3962.91919 1446.974954 0 
3646.173419 1149.866084 3963.131261 1447.184744 0 
3633.056988 1156.889841 3963.010204 1447.210732 2 
3733.224109 1258.220266 3963.020628 1447.093654 2 
3726.817087 1263.956493 3963.126147 1446.947659 2 
3742.878521 1287.018907 3963.191584 1446.895866 2 
3746.182498 1300.039763 3963.233471 1447.08911 0 
3754.077282 1315.243593 3962.935366 1447.142353 0 
3760.904504 1328.104556 3962.867307 1446.827924 0 
3768.22064 1341.248567 3962.762668 1447.027628 0 
3772.888408 1350.022872 3962.98836 1446.862516 2 
3764.993138 1353.758988 3963.206171 1447.060226 0 
3757.965482 1358.082318 3962.757885 1447.094003 0 
3743.851225 1360.199469 3963.239869 1446.783723 0 
3727.989233 1363.22334 3963.122833 1446.816515 2 
3721.216934 1367.808199 3963.208868 1446.871438 0 
3716.162755 1374.826175 3962.949361 1447.133396 0 
3698.824742 1379.962029 3962.911024 1446.96315 0 
3679.234901 1384.149384 3963.075666 1446.978039 2 
3669.158373 1391.031837 3962.788265 1446.873855 0 
3648.864155 1396.79615 3963.217858 1446.96538 0 
3630.245619 1405.207726 3962.999103 1446.984852 0 
3614.181066 1413.871936 3963.051367 1447.148 0 
3585.930135 1423.010236 3962.769438 1446.842891 0 
3580.08641 1434.968799 3963.226286 1447.161153 0 
4166.180828 3025.88731 4454.874302 3025.165729 1 
4158.786695 3035.199969 4454.893768 3025.195067 1 
4161.981806 3043.932034 4454.818922 3025.09596 1 
4156.978184 3053.78678 4454.81134 3024.973803 1 
4163.244506 3063.060443 4455.208655 3025.175572 1 
3594.182379 3191.010023 4455.073572 3024.862514 0 
3589.770258 3220.09301 4454.955404 3025.106669 0 
3613.811809 3242.931691 4455.017821 3025.242637 2 
3088.069001 3425.142123 4455.158366 3025.105695 0 
3479.092092 3377.802135 4455.050763 3024.823898 0 
3296.984168 3485.119685 4455.169858 3025.212352 0 
4057.156464 3198.231198 4454.936155 3025.15097 1 
3716.041641 3373.89481 4455.076543 3024.974019 0 
3760.154833 3379.900115 4455.086533 3025.175091 0 
4110.243125 3215.791938 4455.031759 3024.804934 1 
4129.973628 3217.79958 4454.797571 3024.792629 1 
4126.191704 3235.205938 4455.148325 3025.033796 1 
2898.758073 4084.949088 4455.107693 3024.992241 2 
3382.818772 3806.027551 4454.954593 3025.225237 1 
3407.008749 3840.140748 4455.126207 3024.80039 1 
3233.785558 4037.952749 4455.024409 3025.190391 1 
2745.102864 4536.860943 4455.115482 3025.095989 0 
3075.90288 4323.897241 4455.150924 3025.126509 0 
3883.946822 3598.198495 4455.169138 3024.888526 1 
3359.154433 4194.067463 4455.172322 3025.162506 0 
3382.76655 4244.030015 4454.904747 3024.835323 1 
4323.807566 3184.10934 4454.810559 3025.066316 2 
4335.000088 3180.186766 4455.116706 3025.035646 0 
4345.889516 3174.891115 4454.976037 3025.24238 0 
4356.002058 3170.841519 4455.088369 3025.154938 0 
4369.98876 3158.989293 4455.031447 3025.185582 0 
4391.937788 3148.950585 4454.824108 3024.842221 0 
4397.768047 3146.246429 4454.754726 3024.784598 0 
4414.026444 3137.909473 4454.86992 3025.084011 2 
4415.768813 3142.93048 4454.900327 3025.018901 0 
4423.867246 3159.767033 4454.804548 3025.006762 2 
4426.908148 3173.030585 4454.999142 3025.160206 0 
4432.122104 3169.837511 4455.065144 3024.860864 2 
4435.076804 3178.846591 4454.796447 3024.764592 0 
4444.047176 3197.870555 4454.856813 3025.065223 0 
4448.866984 3207.861539 4455.099821 3025.143428 0 
4455.021012 3221.219741 4454.977439 3025.039825 0 
4460.900221 3233.127766 4454.808727 3025.017467 0 
4477.144799 3266.863274 4454.774228 3024.802946 0 
4488.143859 3290.02337 4455.213152 3025.015963 0 
4500.110881 3315.028296 4455.126828 3024.937685 0 
4648.124887 3889.173274 4454.952277 3024.922063 1 
4711.793829 4028.059089 4455.237286 3024.910813 1 
4944.170628 4708.087107 4454.804241 3024.941641 0 
4529.056848 3255.031681 4455.231466 3025.207068 2 
4535.909447 3250.790193 4454.974535 3024.804245 0 
4542.903467 3247.998763 4454.857192 3024.797326 0 
4548.772133 3244.820344 4455.063289 3025.133014 0 
4556.09864 3241.940117 4454.8207 3024.973528 0 
4569.863391 3235.022976 4455.14559 3024.90722 0 
4575.832066 3232.132876 4455.068033 3024.752694 0 
4600.969983 3256.122274 4454.944335 3024.776831 0 
4616.903954 3247.925801 4455.233899 3025.063401 0 
4624.965994 3243.958434 4455.117647 3025.119461 0 
4578.207197 3174.224838 4455.166787 3025.229331 0 
4568.795183 3154.980077 4455.112345 3025.143823 2 
4573.170194 3152.183045 4454.86735 3024.783585 0 
4572.956021 3142.762941 4454.940805 3025.038087 0 
4570.145817 3133.758837 4455.040782 3024.8658 2 
4585.131111 3114.235117 4454.892631 3024.785066 0 
4589.910918 3105.87653 4455.098467 3025.126912 0 
4593.084964 3101.966114 4454.996373 3025.042161 0 
4595.940952 3097.91316 4455.021492 3024.986135 0 
4599.143237 3093.883837 4454.879957 3025.063431 0 
4605.816882 3084.997308 4455.097016 3025.022903 0 
4609.010249 3080.787821 4454.81099 3024.906066 0 
4611.796658 3076.101772 4455.021866 3025.177769 2 
4608.086889 3070.164497 4455.212835 3025.247807 0 
4598.791027 3062.061302 4455.124718 3025.125991 2 
4601.777416 3057.871091 4454.918152 3024.968368 0 
4615.034252 3046.189644 4455.204503 3024.927489 0 
4624.823481 3035.83446 4455.240919 3024.890362 0 
4632.081768 3031.087935 4455.163265 3024.842017 0 
4649.125756 3019.224256 4454.998083 3025.172414 0 
4658.076028 3012.769949 4455.100183 3024.912916 0 
4690.184446 2996.063018 4454.910723 3025.225473 0 
4779.874321 2952.785441 4455.101463 3024.901737 0 
4787.906533 2905.769615 4455.120105 3025.190784 1 
4913.209258 2844.074607 4454.868273 3024.782739 0 
4762.159067 2892.859192 4454.923101 3024.990835 1 
4778.197127 2872.836367 4455.082852 3025.072883 1 
4742.810623 2878.830935 4454.995297 3025.13665 1 
4739.850884 2867.84548 4454.799566 3024.78533 1 
4760.158498 2844.960289 4454.760802 3024.782819 1 
4926.99573 2609.112265 4454.934555 3025.152263 0 
4858.13188 2596.80466 4455.093047 3025.091139 0 
4849.129267 2578.21132 4455.123878 3025.038334 2 
4930.820512 2449.796979 4454.779169 3024.76764 0 
4878.883346 2478.112021 4455.090523 3024.943969 0 
4835.192956 2501.835819 4454.830619 3024.79384 0 
4780.931299 2510.880185 4454.82917 3024.839797 0 
4760.090474 2508.839972 4454.872616 3024.836204 0 
4743.202237 2501.057171 4455.238467 3025.084118 0 
4772.111831 2404.081514 4454.925257 3024.991098 0 
4759.042834 2379.799135 4454.779432 3025.113346 0 
4744.846114 2353.808601 4455.130985 3024.97946 0 
4731.170623 2327.971508 4455.173429 3025.113579 0 
4583.057327 2629.754048 4455.157419 3025.238627 0 
4569.884233 2631.236589 4454.828424 3025.224707 0 
4553.826561 2636.95104 4454.810912 3024.778798 0 
4537.758212 2652.799379 4455.112916 3025.120043 0 
4501.130893 2661.788173 4454.86114 3024.923726 0 
4490.837307 2643.890572 4454.787072 3024.933421 0 
4475.949174 2689.168057 4455.162882 3024.869796 0 
4464.889565 2695.086311 4455.233375 3025.196892 0 
4455.090359 2700.140794 4455.185519 3025.224592 0 
4445.127383 2704.763943 4455.199299 3025.203944 0 
4434.964983 2710.760211 4455.232742 3024.973195 0 
4406.80959 2725.095658 4454.843238 3025.190482 0 
4390.133831 2733.954378 4454.864208 3025.221138 0 
4364.09495 2747.90128 4454.90456 3024.794124 0 
4356.819337 2751.817442 4454.91392 3024.958902 0 
4340.153752 2759.897296 4454.905794 3024.994111 0 
4315.78809 2772.841313 4454.968703 3025.165473 0 
4299.855256 2780.918003 4455.119417 3025.07024 0 
4291.928214 2785.102159 4454.793435 3024.987803 0 
4096.947818 2531.886672 4454.928285 3024.831649 1 
4086.09105 2550.042493 4454.802787 3024.936001 1 
4192.193773 2727.957347 4454.980125 3024.76311 0 
4192.024788 2763.144045 4454.972012 3024.928541 0 
4192.79134 2780.127807 4455.172652 3024.82943 0 
4193.21912 2794.891356 4455.244904 3024.824376 0 
4184.059358 2801.114321 4455.144616 3025.237572 0 
4165.96648 2801.188051 4454.975375 3025.164298 0 
4146.824723 2801.15366 4455.245946 3025.165774 0 
4126.946153 2801.798733 4454.851774 3024.889927 0 
3946.00608 2702.081899 4454.903037 3024.780868 0 
3921.975944 2709.125049 4454.959409 3025.017284 0 
3908.002856 2723.882061 4455.096714 3024.971976 1 
3726.023417 2653.091618 4455.046352 3024.832775 2 
3681.955939 2659.940968 4454.820347 3025.172419 0 
3620.879019 2663.045721 4455.086716 3024.953743 0 
3782.949381 2758.082663 4454.869517 3025.145535 0 
3821.131396 2796.971291 4454.785461 3024.887476 2 
3683.80319 2773.938498 4454.918344 3025.029134 0 
3789.813548 2832.127753 4454.796418 3025.066404 0 
3798.759815 2856.143132 4454.78838 3025.033232 0 
3745.98475 2866.084732 4455.116007 3025.190688 2 
3750.7757 2913.186353 4455.113107 3024.904719 0 
3755.982075 2935.949823 4455.108462 3025.181456 0 
3783.782486 2961.227979 4455.076991 3025.163882 0 
3779.94927 2982.112452 4454.801358 3025.00246 0 
3802.80095 3003.969703 4454.781593 3024.864498 0 
2563.847456 1788.828011 2647.180902 1787.857271 0 
2565.221143 1791.219282 2647.140503 1787.955892 0 
2567.054014 1794.006509 2646.896581 1788.079714 0 
2569.942863 1795.759688 2647.234433 1788.174937 2 
2569.959511 1798.092895 2647.106393 1787.991997 2 
2562.070874 1801.933384 2646.90588 1787.770144 0 
2554.795836 1805.957238 2647.022603 1787.846787 0 
2545.176941 1811.054196 2646.961285 1787.774397 0 
2378.132207 1857.892187 2646.881668 1788.10335 0 
2382.861469 1865.772171 2646.809242 1788.165483 0 
2401.02868 1868.955823 2646.995197 1788.221543 2 
2404.965511 1875.979631 2647.14648 1788.175022 0 
2404.822526 1884.002874 2646.917019 1788.1434 0 
2394.186258 1898.072899 2647.163544 1788.232094 2 
2394.780137 1906.936147 2646.828881 1788.207078 2 
2399.240343 1915.040166 2647.231475 1788.12255 2 
2554.182353 1839.863143 2646.9759 1787.793822 2 
2565.885314 1837.035143 2647.209306 1788.163995 0 
2576.240966 1833.954503 2647.135538 1787.956477 0 
2585.184134 1831.032018 2646.881499 1787.75666 0 
2588.784891 1830.048518 2647.15006 1788.221149 2 
2588.871417 1833.063603 2647.203243 1787.901554 0 
2590.24975 1834.782124 2646.858632 1788.240093 0 
2591.07229 1837.840107 2647.112643 1788.004643 0 
2590.953251 1839.838543 2647.048466 1788.088565 0 
2593.123686 1845.007771 2647.00256 1788.114652 0 
2594.212274 1847.888097 2646.821128 1788.146408 0 
2596.170115 1853.952627 2647.153067 1788.205006 0 
2596.751145 1857.053127 2647.176156 1787.872562 0 
2597.86673 1860.129399 2647.024116 1787.86648 0 
2599.161523 1864.132748 2646.856573 1787.983813 0 
2601.222855 1866.219216 2647.238456 1787.926105 2 
2574.80776 1919.036922 2646.764671 1788.181446 0 
2580.794693 1918.01723 2647.046098 1787.756967 0 
2586.155328 1917.117226 2647.153375 1788.075442 0 
2590.819853 1917.056443 2647.030449 1787.820998 0 
2595.85957 1915.956604 2646.943559 1787.9763 0 
2599.836003 1917.217675 2647.09278 1788.247526 2 
2601.100422 1927.199353 2646.981339 1788.073277 0 
2604.168569 1933.969796 2647.249383 1788.226329 2 
2606.756717 1941.764053 2647.157775 1787.801411 0 
2600.031283 1995.953873 2646.808378 1787.936611 0 
2607.821099 1992.211753 2646.762053 1787.890951 0 
2615.018196 1989.042502 2646.961949 1788.127765 0 
2622.249107 1985.155508 2646.854065 1787.83511 2 
2627.123183 1993.196845 2646.832637 1787.973605 0 
2633.146198 2005.063976 2646.796882 1788.064767 0 
2635.783772 2129.796265 2647.041096 1787.790489 0 
2646.810318 2119.948871 2646.8419 1788.091601 0 
2657.152744 2114.900278 2646.778212 1788.223843 0 
2666.862031 2109.790266 2646.864794 1788.130227 0 
2677.082768 2103.076743 2647.007992 1788.081875 2 
2688.982251 2124.112057 2647.166985 1787.855434 0 
2709.058902 2182.249621 2647.079039 1787.9551 0 
2722.063597 2182.125921 2646.769868 1788.097369 2 
2749.172186 2247.060964 2647.137858 1788.232503 0 
2772.759835 2281.229758 2647.074105 1788.162579 0 
2796.880036 2307.102317 2647.136422 1787.992067 2 
2841.142583 2385.751216 2646.872293 1787.975351 2 
2852.077959 2357.130286 2646.807225 1787.81021 1 
3024.992343 2744.22421 2646.915644 1787.801246 2 
3206.223831 3079.244683 2647.006346 1788.037429 0 
2721.120604 1948.026214 2646.884798 1788.04279 2 
2720.837178 1933.772656 2647.025293 1787.847013 0 
2724.752414 1930.849398 2646.759592 1787.882449 0 
2729.201715 1929.146014 2647.124516 1788.094297 0 
2734.14723 1926.246809 2646.819648 1787.97519 0 
2738.127095 1923.876873 2647.0354 1787.869438 0 
2720.851083 1890.201044 2646.920683 1787.824915 2 
2724.195728 1888.177029 2647.112343 1788.066332 2 
2715.953243 1872.247141 2646.859122 1788.040421 2 
2717.769797 1869.134415 2647.137433 1787.77221 2 
2716.233813 1862.147026 2646.904659 1788.185528 2 
2719.04304 1860.779175 2647.029825 1787.94027 0 
2720.775984 1859.099473 2647.16546 1788.153078 0 
2725.226346 1856.95086 2646.772516 1787.82743 0 
2727.901904 1855.9432 2646.902344 1787.847632 0 
2730.870229 1853.764688 2647.163963 1788.073472 0 
2734.761829 1851.773085 2646.863893 1787.781625 0 
2719.1575 1836.751326 2646.803836 1788.141312 0 
2717.148352 1832.958495 2647.07684 1787.941392 0 
2709.98767 1825.856665 2647.131662 1788.013653 0 
2707.206138 1821.047121 2646.916732 1788.182485 0 
2706.247981 1818.939248 2646.759915 1787.899885 0 
2704.132448 1814.912259 2646.997517 1787.752677 0 
2701.926946 1811.911481 2647.076149 1787.938775 0 
2699.934566 1809.190042 2646.9704 1787.842065 0 
2699.191369 1807.024236 2647.233378 1788.089721 0 
2698.232731 1805.060218 2646.781112 1787.9704 2 
2698.166883 1803.162774 2647.234054 1788.123021 2 
2700.959896 1801.900786 2647.055506 1787.957877 0 
2702.090034 1801.065421 2647.107762 1787.972482 0 
2704.22768 1799.855279 2646.975159 1787.904626 0 
2708.01676 1797.801308 2647.093401 1788.201325 0 
2710.241351 1796.813802 2646.793391 1788.182719 0 
2713.088037 1794.776769 2647.02244 1788.070768 0 
2716.086986 1793.053552 2646.791168 1788.003869 0 
2719.966326 1790.775222 2646.876891 1788.176222 0 
2724.926008 1788.182397 2646.884099 1787.766042 0 
2728.997818 1786.241861 2646.988523 1787.975498 0 
2733.84714 1783.213682 2647.130124 1788.1139 0 
2810.764991 1772.973525 2647.065226 1787.756341 2 
2840.037327 1764.108616 2647.18906 1787.875364 2 
2850.135385 1755.9615 2647.196132 1787.972371 0 
2846.765052 1750.237301 2647.226241 1787.981378 0 
2854.762523 1741.853132 2646.9076 1787.938531 0 
2892.785529 1725.041699 2646.954572 1788.033347 0 
2702.03356 1772.193096 2646.758845 1788.1307 2 
2699.156778 1771.138969 2646.9946 1788.171769 0 
2698.862494 1769.809825 2647.17811 1788.149821 0 
2698.168442 1768.11717 2646.775185 1788.053826 0 
2696.82867 1767.221318 2646.776197 1787.843723 0 
2696.208618 1764.752438 2647.075101 1788.221141 0 
2695.85557 1764.232701 2646.909672 1787.891099 0 
2694.0244 1762.114244 2647.174446 1787.80796 0 
2692.05734 1761.18329 2647.18866 1787.964118 2 
2691.072259 1759.933259 2646.885887 1788.184753 0 
2690.993085 1758.813997 2647.084574 1787.911526 0 
2690.181167 1757.109759 2647.215353 1787.759838 0 
2689.081077 1756.24155 2646.85356 1788.039695 0 
2688.243988 1754.178661 2647.010836 1787.849558 0 
2687.161363 1752.170508 2646.990656 1787.935763 0 
2687.034753 1750.915102 2646.993723 1787.842093 0 
2686.848392 1748.932382 2647.056211 1788.170651 0 
2686.115642 1747.192098 2647.105405 1787.858727 0 
2684.756095 1744.939979 2647.020253 1788.187262 0 
2683.799738 1743.985605 2647.1971 1788.130815 0 
2682.977156 1741.80066 2646.920511 1787.971144 0 
2682.229321 1740.181347 2647.070702 1788.140684 0 
2681.101856 1737.811358 2646.826447 1787.886608 0 
2769.97646 1594.07017 2646.978701 1788.074852 0 
2797.752552 1532.784912 2646.995504 1788.118194 0 
2689.22701 1709.850908 2647.22692 1788.233105 0 
2685.040887 1711.997173 2647.170367 1788.090626 0 
2681.232779 1714.117466 2646.971441 1787.959934 0 
2677.168126 1717.141952 2647.181078 1788.147447 0 
2674.073299 1718.00178 2647.038131 1787.925155 0 
2671.063138 1721.114578 2647.061763 1787.789598 2 
2668.934747 1720.790464 2647.11445 1787.937299 2 
2666.825376 1716.859954 2646.805493 1787.802385 0 
2665.960862 1714.782413 2646.78549 1787.751749 0 
2664.029587 1712.205857 2647.092375 1788.012365 2 
2661.073323 1711.813816 2647.2223 1787.991449 2 
2659.205768 1711.153378 2646.888895 1788.029067 0 
2656.905158 1708.177026 2647.204222 1788.218296 0 
2655.041604 1704.015985 2646.757894 1788.226351 0 
2652.056449 1694.122344 2646.91365 1788.131825 0 
2650.232298 1689.969143 2647.18421 1787.94316 0 
2647.001556 1663.2197 2646.944909 1787.781143 0 
2643.175557 1668.787284 2647.043509 1787.99888 0 
2638.8511 1671.015808 2647.240328 1787.806868 0 
2635.919186 1672.879224 2647.085935 1788.074344 2 
2630.80625 1665.040157 2647.04264 1788.097854 0 
2623.806143 1645.050534 2647.074205 1788.112592 0 
2614.922878 1621.237855 2646.994417 1787.905176 2 
2607.956998 1612.928627 2647.098335 1788.208554 0 
2615.898327 1670.793244 2647.239697 1787.823884 1 
2612.830528 1672.033206 2647.072764 1787.931628 1 
2613.799014 1690.063092 2646.988495 1787.9682 1 
2606.192316 1674.82443 2646.792545 1788.248566 1 
2609.114588 1693.085185 2647.09642 1788.17073 1 
2600.885719 1683.920624 2647.033322 1788.058597 1 
2599.908479 1689.777739 2647.213773 1788.115476 1 
2589.956365 1676.062108 2647.07403 1788.104693 1 
2589.105352 1684.063727 2647.178577 1788.18588 1 
2375.846933 1331.001341 2646.867507 1787.895947 0 
2361.814433 1339.106003 2647.114147 1787.75675 0 
2374.180433 1387.156692 2646.755316 1788.045021 0 
2379.991876 1422.101736 2646.965751 1788.127595 0 
2388.77236 1456.249073 2646.936192 1787.930839 2 
2390.776812 1478.899965 2646.796315 1787.983177 0 
2394.212072 1502.120346 2646.83787 1788.067424 2 
2411.934073 1538.766447 2647.003304 1788.031006 2 
2482.017788 1624.120812 2647.176953 1788.082221 2 
2488.976814 1640.0411 2647.088971 1787.907247 2 
2490.947792 1652.094287 2647.202268 1788.189668 2 
2499.946022 1666.91802 2647.067264 1787.968382 0 
2501.917093 1676.753456 2647.149221 1787.943905 0 
2525.90342 1701.195537 2647.177082 1787.865493 2 
2535.065882 1712.764952 2647.182917 1788.249956 2 
2537.781398 1719.936222 2647.030962 1788.049186 0 
2540.807033 1725.957915 2646.881407 1788.033847 2 
2540.249015 1729.220378 2647.191095 1787.946807 2 
2543.064665 1736.143363 2646.886475 1787.760687 2 
2541.811383 1739.203739 2646.979069 1787.978475 0 
2537.207195 1740.878291 2647.17238 1787.860615 0 
2532.823827 1743.099462 2646.976108 1788.13971 0 
2528.114413 1744.909025 2647.139665 1788.145812 0 
2523.095247 1747.920627 2646.944998 1788.15228 0 
2516.128542 1751.076405 2646.936127 1788.127557 0 
2512.046783 1753.877222 2646.824364 1787.861448 2 
2547.770586 1765.96084 2646.872135 1787.831968 2 
2549.914579 1770.101204 2647.060444 1787.871774 0 
2551.229495 1772.982824 2646.982389 1787.803322 0 
2553.832285 1777.208497 2647.193032 1788.196699 0 
2560.867523 1780.082697 2647.09251 1788.21277 2 
2560.753325 1782.787508 2647.11505 1788.131867 0 
2563.113913 1785.801177 2647.009424 1787.910695 0 
2398.9284 2244.083789 2435.022143 2242.948985 2 
2399.794628 2245.144278 2435.030953 2242.959207 0 
2399.995482 2245.841397 2435.080981 2242.974976 0 
2401.074221 2246.813371 2435.028298 2243.156506 0 
